9.25,9.3125,9.3125,9.25,9.375,9.4375,9.5,9.5,9.5625,9.625,9.6875,9.75,9.8125,10,10.1875,10.1875,10.0625,10.1875,10.1875,10.1875,10.125,10.0625,10.125,10.125,10.0625,9.9375,9.9375,9.8125,9.75,9.75,9.8125,9.875,9.8125,9.8125,10.125,10.25,10.3125,10.375,10.4375,10.4375,10.4375,10.5,10.5,10.5,10.4375,10.5,10.5,10.5,10.4375,10.375,10.375,0,0,0,0,0,10.125,10,10,9.9375,9.75,9.625,9.5625,9.5625,9.5,9.3125,9.25,9.25,9.25,9.0625,9.0625,9.25,9.4375,9.5,9.5625,9.6875,9.75,9.875,9.875,9.8125,9.875,10,10,10,9.9375,9.9375,10.0625,10.125,10.1875,10.25,10.25,10.25,10.25,10.3125,10.3125,10.375,10.375,10.375,10.375,10.4375,10.5,10.5,10.5,10.4375,10.4375,10.4375,10.4375,10.1875,9.9375,10.1875,9.9375,9.75,9.875,9.875,10.0625,10.125,9.875,9.75,9.75,9.8125,0,0,0,0,0,0,0,10.1875,0,10.25,10.1875,10.1875,10.25,10.1875,10.25,10.25,10.25,10.1875,10.1875,10.1875,10.1875,10.125,10.125,9.875,9.6875,9.6875,9.5625,9.5625,9.5,9.5,9.5,9.375,9.375,8.9375,8.625,8.625,8.5,8.4375,8.375,8.375,8.375,8.375,8.3125,8.3125,8.375,8.5,8.625,8.6875,8.75,8.875,8.9375,9.125,9.3125,9.375,9.4375,9.5,9.5625,9.5625,9.5625,9.5625,9.625,9.625,9.6875,9.75,9.75,9.8125,9.875,9.875,10,9.9375,9.8125,9.75,9.75,9.6875,9.6875,9.5625,9.625,9.6875,9.6875,9.6875,9.6875,9.6875,9.625,9.625,9.5625,9.5625,9.5625,9.5625,9.625,9.5625,9.625,9.5625,9.3125,9.25,9.25,9.1875,9.0625,9.25,9.4375,9.5,9.5625,9.5,9.625,9.625,9.6875,9.875,10.0625,10.1875,10.125,9.875,9.9375,0,0,8.8125,8.875,9.1875,9.3125,9.0625,9,0,0,8.375,8.5,8.5625,8.5625,9,8.875,8.9375,9,8.6875,8.625,8.5,8.4375,8.4375,8.5,8.5,8.5,8.5625,8.625,8.5625,8.375,8.4375,8.375,8.4375,8.375,8.375,8.5,8.4375,8.4375,8.375,8.375,8.375,8.1875,8.0625,8.125,8.25,8.25,8.1875,8,8.125,8.3125,8.375,0,0,8.5625,8.5625,8.625,8.6875,8.8125,9,9.125,9.25,9.25,9.3125,9.4375,9.5625,9.5,9.625,9.625,9.625,9.6875,9.75,9.8125,9.9375,10,0,9.5,0,9.5,9.4375,9.25,8.75,8.625,8.5,8.625,8.5,8.5,8.625,8.6875,8.75,8.8125,8.75,8.75,8.8125,8.6875,8.6875,8.875,8.9375,9,8.8125,9,8.75,8.6875,8.5625,8.4375,8.375,8.3125,8.3125,8.25,8.1875,8.125,8.0625,8.0625,8.125,7.9375,7.75,7.8125,7.875,7.8125,7.75,7.75,7.8125,7.8125,7.8125,8,8.125,8.25,8.375,8.3125,8.3125,8.5,8.5,8.4375,8.5,8.4375,8.375,8.375,8.375,8.375,8.4375,8.4375,8.375,8.3125,8.375,8.4375,8.375,8.4375,8.4375,8.5,8.625,8.6875,8.625,8.6875,8.625,8.5625,8.4375,8.3125,8.3125,8.25,8.25,8.375,8.25,8.3125,8.375,8.375,8.4375,8.4375,8.4375,8.5,8.5625,8.5,8.5625,8.5625,8.5625,8.5625,8.5,8.5,8.5,8.4375,8.4375,8.375,8.3125,8.375,8.25,8.1875,8.125,8.1875,8.1875,8.0625,8.125,8.1875,8.125,8.125,8.25,8.25,8.25,8.25,8.1875,8.25,8.25,8.375,8.375,8.375,8.4375,8.3125,8.25,8.3125,8.25,8.0625,8.0625,8.0625,8.0625,8.1875,8.1875,8.25,8.125,8.1875,8,7.9375,8.1875,8.125,8.1875,8.1875,8.25,8.25,8.25,8.1875,8.125,8.125,8.0625,8.125,8.0625,8.1875,8.1875,8.0625,8.0625,7.9375,7.9375,8.0625,8,8,7.9375,8.125,8.0625,8.25,8.1875,8.3125,8.3125,8.375,8.375,8.4375,8.4375,8.5,8.5,8.5,8.5625,8.5,8.5,8.5,8.5,8.5625,8.5625,8.5625,8.5625,8.5,8.5625,8.5625,8.5,8.5625,8.5625,8.5625,8.6875,8.75,8.8125,8.8125,8.875,9.0625,9.1875,9.25,9.1875,9.125,9.125,9.1875,9,9.0625,8.9375,8.875,8.8125,8.8125,8.875,8.75,8.75,8.6875,8.5625,8.625,8.6875,8.75
9.3125,9.375,9.3125,9.25,9.375,9.4375,9.4375,9.5,9.5625,9.625,9.6875,9.6875,9.75,9.875,10.125,10.125,9.9375,10.0625,10.125,10.0625,9.9375,9.9375,9.9375,9.9375,9.875,9.8125,9.8125,9.75,9.6875,9.6875,9.75,9.8125,9.75,9.75,10,10.1875,10.1875,10.3125,10.3125,10.3125,10.3125,10.375,10.4375,10.375,10.375,10.375,10.4375,10.4375,10.375,10.3125,10.3125,0,0,0,0,0,10.25,10.125,10.125,10.0625,9.8125,9.5625,9.5625,9.5625,9.5,9.25,9.1875,9.1875,9.1875,9.0625,9,9.1875,9.375,9.4375,9.5625,9.6875,9.75,9.8125,9.8125,9.75,9.875,9.9375,9.9375,9.9375,9.875,9.9375,10,10.0625,10.1875,10.25,10.1875,10.1875,10.1875,10.25,10.3125,10.375,10.375,10.375,10.375,10.4375,10.5625,10.5625,10.5625,10.5,10.5,10.5,10.5625,10.5,0,10.6875,0,10.375,10.3125,10.3125,10.375,0,10.375,10.25,10.25,10.25,10.1875,10.1875,10.25,10.3125,10.1875,10.1875,10.25,10.3125,10.3125,10.3125,10.25,10.3125,10.3125,10.3125,10.3125,10.3125,10.3125,10.25,10.25,10.25,10.1875,10.125,10.125,9.875,9.6875,9.6875,9.5625,9.5625,9.5,9.5625,9.5625,9.4375,9.5,9.0625,8.625,8.75,8.5,8.5,8.4375,8.4375,8.4375,8.4375,8.4375,8.4375,8.4375,8.5,8.6875,8.6875,8.75,8.875,8.8125,9,9.1875,9.3125,9.375,9.4375,9.5,9.5,9.5,9.5,9.5625,9.5625,9.625,9.6875,9.75,9.75,9.8125,9.9375,10,10,9.9375,9.8125,9.8125,9.75,9.75,9.625,9.6875,9.75,9.75,9.75,9.75,9.6875,9.6875,9.625,9.625,9.5625,9.5625,9.5625,9.625,9.625,9.625,9.5625,9.3125,9.25,9.25,9.1875,9.0625,9.3125,9.4375,9.5625,9.625,9.5625,9.6875,9.75,9.75,9.9375,10.125,10.1875,10.25,10.0625,9.9375,0,0,8.5625,8.625,8.75,8.75,8.625,8.625,8.4375,8.375,8.25,8.375,8.5,8.5,8.75,8.625,8.6875,8.6875,8.625,8.5625,8.4375,8.375,8.375,8.375,8.4375,8.4375,8.5,8.5625,8.5625,8.3125,8.4375,8.375,8.4375,8.375,8.375,8.4375,8.4375,8.375,8.375,8.3125,8.25,8.0625,7.875,7.9375,8.0625,8,7.9375,7.8125,7.875,8.0625,8.125,8.375,0,8.5,8.5625,8.625,8.6875,8.8125,9,9.1875,9.3125,9.3125,9.375,9.5,9.5625,9.5625,9.6875,9.6875,9.6875,9.6875,9.75,9.75,9.875,0,0,0,0,9.1875,9.1875,8.6875,0,8.5,8.5,8.5625,8.5,8.5625,8.5625,8.6875,8.8125,8.875,8.8125,8.8125,8.875,8.75,8.75,8.9375,9.125,9.125,8.9375,9.1875,8.875,8.6875,8.625,8.5,8.375,8.3125,8.3125,8.25,8.25,8.1875,8.125,8.0625,8.125,7.9375,7.6875,7.75,7.8125,7.75,7.75,7.75,7.8125,7.8125,7.8125,8,8.1875,8.3125,8.375,8.3125,8.375,8.5625,8.5625,8.5,8.5625,8.4375,8.4375,8.4375,8.4375,8.4375,8.4375,8.4375,8.4375,8.375,8.4375,8.5,8.4375,8.4375,8.5,8.5,8.625,8.6875,8.6875,8.6875,8.625,8.5625,8.5,8.375,8.3125,8.25,8.25,8.375,8.25,8.3125,8.375,8.375,8.4375,8.4375,8.4375,8.4375,8.4375,8.4375,8.5,8.5,8.5625,8.5,8.4375,8.5,8.5,8.375,8.375,8.375,8.3125,8.375,8.25,8.25,8.1875,8.25,8.25,8.125,8.1875,8.25,8.1875,8.1875,8.3125,8.25,8.25,8.3125,8.25,8.25,8.25,8.375,8.375,8.375,8.4375,8.3125,8.1875,8.3125,8.1875,7.9375,7.9375,7.9375,7.9375,8.0625,8.0625,8.1875,8.0625,8.125,7.9375,7.9375,8.1875,8.125,8.1875,8.1875,8.25,8.25,8.25,8.25,8.125,8.125,8.125,8.1875,8.0625,8.1875,8.1875,8.0625,8.125,8,7.9375,8.0625,8.0625,8,7.875,8.125,8.125,8.25,8.1875,8.25,8.3125,8.375,8.375,8.4375,8.4375,8.5,8.5,8.5,8.5625,8.5,8.5,8.5,8.5625,8.5625,8.5625,8.5625,8.5625,8.5625,8.5625,8.5625,8.5,8.625,8.625,8.625,8.6875,8.8125,8.875,8.875,8.9375,9.0625,9.1875,9.25,9.1875,9.125,9.125,9.1875,9.0625,9.0625,9,8.9375,8.875,8.875,8.9375,8.8125,8.8125,8.75,8.625,8.625,8.75,8.75
9.375,9.4375,9.375,9.3125,9.4375,9.4375,9.4375,9.5,9.5625,9.5625,9.625,9.6875,9.75,9.8125,10.0625,9.9375,9.8125,9.875,9.9375,9.9375,9.8125,9.875,9.8125,9.8125,9.8125,9.75,9.6875,9.625,9.625,9.625,9.6875,9.75,9.6875,9.6875,9.875,10,10,10.125,10.1875,10.25,10.1875,10.25,10.3125,10.25,10.25,10.375,10.375,10.375,10.375,10.25,10.3125,10.375,0,0,10.3125,10.375,10.375,10.25,10.25,10.25,9.9375,9.625,9.5625,9.5625,9.5625,9.25,9.1875,9.25,9.1875,9.0625,9,9.1875,9.375,9.4375,9.5,9.6875,9.6875,9.8125,9.75,9.75,9.8125,9.875,9.875,9.9375,9.875,9.875,10,10.125,10.1875,10.25,10.1875,10.1875,10.25,10.25,10.3125,10.375,10.4375,10.375,10.375,10.5,10.5625,10.625,10.5625,10.5,10.5,10.5625,10.625,10.5625,10.75,11.0625,11.125,10.8125,10.6875,10.625,10.5625,10.6875,10.625,10.4375,10.4375,10.4375,10.4375,10.375,10.375,10.375,10.25,10.25,10.3125,10.3125,10.3125,10.3125,10.25,10.25,10.375,10.25,10.25,10.25,10.3125,10.3125,10.25,10.25,10.1875,10.125,10.125,9.9375,9.8125,9.75,9.625,9.5625,9.5625,9.5625,9.5625,9.5,9.5,9,8.6875,8.8125,0,8.5,8.5,8.4375,8.5,8.5,8.5625,0,0,0,8.75,8.8125,8.9375,9,9,9.125,9.25,9.375,9.4375,9.5,9.5625,0,9.4375,9.5,9.5625,9.5625,9.625,9.6875,9.6875,9.6875,9.8125,9.875,9.9375,9.875,9.875,9.75,9.6875,9.75,9.75,9.625,9.625,9.75,9.75,9.75,9.75,9.75,9.6875,9.625,9.625,9.5625,9.5625,9.625,9.625,9.625,9.625,9.625,9.5,9.375,9.375,9.3125,9.25,9.375,9.5625,9.625,9.6875,9.6875,9.8125,9.875,9.875,10,10.0625,10.1875,10.125,10,0,0,0,8.4375,8.375,8.4375,8.375,8.3125,8.3125,8,7.9375,7.9375,8.125,8.25,8.3125,8.5625,8.4375,8.5625,8.5,8.4375,8.4375,8.3125,8.1875,8.25,8.25,8.3125,8.375,8.4375,8.4375,8.4375,8.1875,8.25,8.25,8.3125,8.3125,8.3125,8.375,8.375,8.25,8.25,8.125,8.0625,7.875,7.75,7.8125,7.8125,7.8125,7.75,7.6875,7.75,7.875,7.875,8.1875,8.375,8.4375,8.5,8.5,8.625,8.8125,9.0625,9.25,9.375,9.4375,9.4375,9.5625,9.625,9.625,9.6875,9.6875,9.6875,9.625,9.625,9.6875,0,0,0,0,0,8.625,8.75,8.5625,8.5625,8.625,8.5625,8.6875,8.625,8.6875,8.75,8.8125,9,9.1875,9.1875,9.125,9.125,9,8.9375,9.125,9.25,9.25,9.1875,9.375,9,8.75,8.625,8.5625,8.4375,8.3125,8.3125,8.3125,8.25,8.25,8.1875,8.1875,8.1875,8,7.75,7.75,7.875,7.8125,7.75,7.75,7.8125,7.8125,7.8125,8.0625,8.1875,8.3125,8.375,8.3125,8.375,8.625,8.625,8.5625,8.5625,8.5,8.4375,8.4375,8.4375,8.5,8.4375,8.4375,8.4375,8.4375,8.5,8.5625,8.4375,8.5,8.5,8.5625,8.625,8.6875,8.625,8.6875,8.625,8.5625,8.5,8.3125,8.25,8.1875,8.25,8.375,8.25,8.375,8.375,8.4375,8.5,8.4375,8.4375,8.4375,8.4375,8.4375,8.5,8.5,8.5,8.4375,8.4375,8.4375,8.4375,8.375,8.375,8.3125,8.3125,8.3125,8.25,8.25,8.125,8.1875,8.25,8.125,8.1875,8.25,8.125,8.125,8.25,8.25,8.25,8.25,8.25,8.3125,8.3125,8.375,8.375,8.375,8.4375,8.3125,8.25,8.3125,8.25,8,8,8,8,8.0625,8.0625,8.1875,8,8.0625,7.9375,7.875,8.1875,8.125,8.1875,8.25,8.25,8.25,8.25,8.25,8.1875,8.1875,8.125,8.1875,8.125,8.25,8.25,8.125,8.125,8,8,8.0625,8.0625,8,7.875,8.125,8.125,8.1875,8.1875,8.25,8.25,8.3125,8.375,8.4375,8.4375,8.5,8.5,8.5,8.625,8.5,8.5625,8.5625,8.5625,8.625,8.5625,8.625,8.625,8.625,8.5625,8.5625,8.5,8.625,8.625,8.625,8.6875,8.875,8.875,8.875,8.9375,9.0625,9.1875,9.25,9.1875,9.125,9.1875,9.25,9.125,9.1875,9.125,9.0625,9,9,9,8.9375,8.875,8.8125,8.625,8.625,8.8125,8.8125
9.5,9.5,9.5,9.4375,9.5,9.5,9.5,9.5625,9.625,9.625,9.6875,9.75,9.75,9.875,10.125,10.0625,9.875,9.875,9.875,9.875,9.8125,9.8125,9.75,9.75,9.75,9.6875,9.625,9.5625,9.5625,9.5625,9.625,9.6875,9.625,9.625,9.75,9.8125,9.8125,9.9375,10,10.0625,10.0625,10.125,10.1875,10.1875,10.1875,10.3125,10.375,10.3125,10.3125,10.25,10.3125,10.375,10.375,10.3125,10.375,10.375,10.375,10.3125,10.3125,10.3125,9.9375,9.625,9.5625,9.5625,0,9.1875,9.1875,9.3125,9.25,9.1875,9.125,9.25,9.375,9.4375,9.5625,9.6875,9.625,9.75,9.75,9.75,9.8125,9.875,10,10,9.9375,9.9375,10.0625,10.1875,10.25,10.3125,10.1875,10.1875,10.25,10.25,10.3125,10.375,10.375,10.375,10.375,10.4375,10.5625,10.625,10.625,10.5625,10.5625,10.625,10.75,10.75,11.125,11.375,11.5,11.5,11.375,11.1875,11.0625,11.1875,11,10.6875,10.625,10.5,10.5625,10.5,10.4375,10.375,10.25,10.1875,10.25,10.3125,10.25,10.1875,10.125,10.1875,10.1875,10.125,10.125,10,10.125,10.1875,10.125,10.0625,10,10,9.9375,9.8125,9.75,9.6875,9.5625,9.5625,9.5,9.5,9.4375,9.375,9.3125,8.9375,8.6875,8.875,0,8.5,8.5,8.4375,8.5,8.5,8.625,8.6875,0,8.5625,8.875,9,9.125,9.1875,9.125,9.25,9.3125,9.4375,9.5,9.5,9.5625,0,9.4375,9.5,9.5625,9.625,9.625,9.625,9.6875,9.6875,9.75,9.8125,9.8125,9.8125,9.75,9.6875,9.6875,9.6875,9.75,9.625,9.625,9.75,9.75,9.75,9.75,9.75,9.75,9.6875,9.625,9.625,9.625,9.625,9.6875,9.6875,9.6875,9.75,9.625,9.5625,9.5,9.5,9.4375,9.5,9.625,9.6875,9.8125,9.8125,9.875,9.875,9.875,9.9375,9.9375,10,9.875,9.6875,0,0,0,8.375,8.3125,8.375,8.25,8.1875,8.1875,7.875,7.875,7.8125,7.9375,8.0625,8.125,8.375,8.25,8.4375,8.4375,8.25,8.3125,8.0625,7.9375,8,8,8.1875,8.1875,8.3125,8.3125,8.3125,8.0625,8.125,8.125,8.1875,8.1875,8.1875,8.3125,8.3125,8.25,8.25,8.0625,7.9375,7.8125,7.75,7.8125,7.8125,7.8125,7.75,7.6875,7.75,7.875,7.875,8.1875,8.375,8.4375,8.5,8.5625,8.6875,8.875,9.125,9.25,9.4375,9.4375,9.375,9.5,9.625,9.625,9.625,9.5625,9.625,9.5625,9.5625,9.5,9.125,0,8.4375,8.5,8.5,8.5625,8.625,8.5625,8.625,8.75,8.6875,8.8125,8.875,8.8125,8.9375,9.0625,9.25,9.375,9.375,9.3125,9.25,9.1875,9.0625,9.1875,9.25,9.25,9.1875,9.25,8.875,8.6875,8.6875,8.5625,8.5,8.375,8.3125,8.3125,8.3125,8.3125,8.3125,8.3125,8.3125,8.1875,7.875,7.9375,8.0625,7.9375,7.875,7.9375,8,8,8,8.1875,8.3125,8.375,8.4375,8.375,8.375,8.625,8.625,8.5625,8.625,8.5,8.5,8.5,8.5,8.5,8.5,8.5,8.5,8.5,8.5,8.5625,8.4375,8.5,8.5,8.5625,8.625,8.625,8.625,8.625,0,8.5,8.375,8.1875,8.0625,8.0625,8.1875,8.3125,8.25,8.375,8.375,8.4375,8.5,8.4375,8.4375,8.4375,8.4375,8.4375,8.4375,8.5,8.5,8.4375,8.375,8.4375,8.375,8.3125,8.3125,8.25,8.25,8.25,8.1875,8.1875,8.125,8.1875,8.1875,8.0625,8.125,8.1875,8.125,8.0625,8.25,8.1875,8.25,8.25,8.25,8.3125,8.25,8.375,8.375,8.375,8.4375,8.3125,8.25,8.375,8.25,8,8.0625,8.0625,8.0625,8.125,8.0625,8.1875,8.0625,8.0625,7.9375,7.875,8.1875,8.125,8.1875,8.1875,8.25,8.25,8.25,8.25,8.125,8.1875,8.125,8.1875,8.125,8.25,8.25,8.125,8.1875,8,8,8.0625,8.0625,8,7.875,8.125,8.125,8.1875,8.1875,8.25,8.25,8.3125,8.375,8.4375,8.4375,8.5,8.5,8.5625,8.625,8.5625,8.5625,8.5625,8.625,8.6875,8.625,8.6875,8.6875,8.625,8.625,8.625,8.5625,8.625,8.625,8.625,8.6875,8.8125,8.875,8.8125,8.9375,9.0625,9.1875,9.25,9.1875,9.1875,9.1875,9.3125,9.25,9.25,9.1875,9.1875,9.125,9.0625,9.125,9,8.9375,8.8125,8.625,8.6875,8.8125,8.8125
9.5625,9.625,9.6875,9.5625,9.5625,9.625,9.625,9.6875,9.6875,9.6875,9.75,9.8125,9.875,9.875,10.125,10.1875,9.9375,9.875,9.9375,9.875,9.8125,9.8125,9.75,9.75,9.75,9.6875,9.625,9.5625,9.5625,9.5625,9.5625,9.625,9.5625,9.5,9.625,9.6875,9.625,9.8125,9.875,9.9375,9.9375,10.0625,10.0625,10.0625,10.125,10.25,10.3125,10.25,10.25,10.1875,10.25,10.3125,10.3125,10.25,10.3125,10.3125,10.25,10.25,10.25,10.25,9.9375,9.625,9.5625,9.5625,0,9.1875,9.25,9.3125,9.25,9.25,9.25,9.25,9.375,9.4375,9.5,9.625,9.625,9.75,9.75,9.75,9.875,10,10.0625,10.125,10.0625,10,10.125,10.25,10.3125,10.3125,10.25,10.25,10.25,10.25,10.25,10.375,10.375,10.375,10.375,10.4375,10.5625,10.5625,10.5625,10.5625,10.5625,10.6875,10.875,10.9375,11.3125,11.5,11.625,11.625,11.5625,11.375,11.375,11.4375,11.25,11,10.8125,10.5625,10.5625,10.5625,10.4375,10.3125,10.1875,10.1875,10.3125,10.3125,10.25,10.125,10.0625,10.125,10.125,10,10.0625,9.9375,10,10,9.9375,9.9375,9.875,9.875,9.8125,9.75,9.625,9.5625,9.5,9.5,9.375,9.375,9.375,9.25,9.0625,8.75,8.6875,8.75,8.5,8.5625,8.5,8.4375,8.5,8.4375,8.6875,8.75,8.6875,8.625,8.875,9,9.125,9.0625,9,9.1875,9.3125,9.3125,9.375,9.5,0,9.5,9.375,9.4375,9.5625,9.5625,9.5625,9.5625,9.625,9.625,9.6875,9.75,9.75,9.75,9.6875,9.625,9.625,9.625,9.6875,9.625,9.625,9.6875,9.75,9.75,9.75,9.75,9.6875,9.6875,9.625,9.625,9.6875,9.6875,9.75,9.75,9.75,9.75,9.625,9.625,9.5625,9.5625,9.5,9.5625,9.6875,9.6875,9.8125,9.8125,9.875,9.8125,9.75,9.8125,9.8125,9.8125,9.6875,9.5,9.4375,9.125,8.5625,8.5,8.4375,8.4375,8.375,8.375,8.375,8.125,8.0625,8,8.0625,8.125,8.125,8.3125,8.1875,8.4375,8.375,8.125,8.1875,7.875,7.8125,7.8125,7.875,8.0625,8.0625,8.1875,8.25,8.1875,7.875,7.9375,7.9375,8.0625,8.0625,8.0625,8.25,8.25,8.1875,8.1875,8.0625,7.9375,7.875,7.75,7.8125,7.875,7.8125,7.8125,7.75,7.8125,7.875,7.9375,8.25,8.4375,8.5,8.5625,8.625,8.75,8.9375,9.125,9.25,9.4375,9.4375,9.4375,9.5,9.625,9.5625,9.5625,9.5,9.5,9.375,9.375,9.0625,8.6875,8.5,8.4375,8.5,8.5,8.5625,8.5625,8.5625,8.6875,8.8125,8.6875,8.875,8.9375,8.875,9.0625,9.1875,9.3125,9.4375,9.4375,9.375,9.3125,0,0,9.25,0,0,9.125,9.125,8.75,8.625,8.625,8.5625,8.4375,8.3125,8.3125,8.3125,8.3125,8.3125,8.3125,8.3125,8.375,8.3125,8.125,8.1875,8.25,8.1875,8.125,8.1875,8.25,8.1875,8.1875,8.375,8.4375,8.4375,8.5,8.375,8.4375,8.625,8.6875,8.625,8.625,8.5625,8.5,8.5,8.5,8.5625,8.5,8.5,8.5625,8.5625,8.5625,8.6875,8.5,8.5625,8.5625,8.5625,8.6875,8.6875,8.6875,0,0,0,0,0,8.0625,8,8.1875,8.25,8.1875,8.3125,8.3125,8.375,8.4375,8.4375,8.4375,8.375,8.375,8.375,8.375,8.4375,8.4375,8.375,8.3125,8.3125,8.3125,8.25,8.25,8.1875,8.1875,8.1875,8.1875,8.1875,8.0625,8.125,8.1875,8.0625,8.125,8.1875,8.125,8.0625,8.25,8.1875,8.25,8.25,8.25,8.25,8.25,8.375,8.375,8.3125,8.375,8.3125,8.3125,8.375,8.25,8.125,8.1875,8.0625,8.125,8.1875,8.1875,8.25,8.125,8.125,7.9375,7.875,8.1875,8.0625,8.1875,8.1875,8.25,8.1875,8.1875,8.25,8.125,8.125,8.125,8.1875,8.125,8.25,8.25,8.125,8.125,7.9375,7.9375,8,8,8,7.875,8.125,8.1875,8.1875,8.1875,8.25,8.25,8.3125,8.375,8.4375,8.4375,8.5,8.5625,8.5625,8.6875,8.625,8.625,8.625,8.6875,8.6875,8.6875,8.6875,8.75,8.6875,8.625,8.625,8.5625,8.625,8.625,8.625,8.6875,8.8125,8.8125,8.8125,8.875,9,9.125,9.1875,9.1875,9.1875,9.1875,9.3125,9.25,9.3125,9.25,9.25,9.1875,9.125,9.125,9.0625,8.9375,8.8125,8.6875,8.6875,8.8125,8.8125
9.6875,9.75,9.8125,9.6875,9.6875,9.75,9.75,9.75,9.8125,9.8125,9.8125,9.875,9.875,9.875,10.125,10.25,10,9.875,9.9375,9.9375,9.875,9.875,9.8125,9.75,9.75,9.75,9.625,9.5625,9.5625,9.5625,9.5625,9.5625,9.5,9.4375,9.5625,9.625,9.5625,9.75,9.875,9.875,9.875,9.9375,9.9375,9.9375,10,10.125,10.25,10.25,10.25,10.125,10.1875,10.25,10.25,10.1875,10.1875,10.1875,10.125,10.125,10.1875,10.125,9.875,9.5625,9.5,9.5,9.4375,9.1875,9.25,9.25,9.25,9.3125,9.25,9.25,9.3125,9.375,9.5,9.625,9.625,9.8125,9.8125,9.8125,9.9375,10.0625,10.125,10.1875,10.1875,10.0625,10.1875,10.25,10.3125,10.3125,10.25,10.25,10.25,10.25,10.3125,10.3125,10.375,10.375,10.375,10.4375,10.5625,10.5625,10.5625,10.5625,10.5625,10.6875,10.875,10.8125,11.3125,11.5,11.625,11.625,11.5625,11.4375,11.375,11.5,0,10.9375,10.8125,10.5625,10.5625,10.5625,10.375,10.0625,10,10.0625,10.1875,10.25,10.0625,9.9375,9.875,9.9375,9.9375,9.8125,9.875,9.8125,9.8125,9.8125,9.8125,9.75,9.75,9.75,9.75,9.75,9.625,9.5625,9.4375,9.375,9.3125,9.25,9.25,9.125,9,8.6875,8.75,8.8125,8.5625,8.625,0,8.5,8.5,8.5,8.75,8.9375,8.8125,8.75,8.9375,8.9375,9.125,9,8.9375,9.0625,9.125,9.1875,9.3125,9.4375,9.4375,9.375,9.3125,9.375,9.5,9.5625,9.5625,9.5625,9.5625,9.625,9.625,9.6875,9.75,9.6875,9.625,9.5625,9.5625,9.625,9.625,9.5625,9.5625,9.6875,9.75,9.75,9.75,9.75,9.6875,9.6875,9.6875,9.6875,9.6875,9.75,9.75,9.8125,9.8125,9.8125,9.6875,9.625,9.625,9.5625,9.5625,9.5625,9.6875,9.75,9.8125,9.8125,9.875,9.8125,9.75,9.8125,9.75,9.8125,9.6875,9.5,9.4375,9.1875,8.625,8.5,8.5,8.5,8.4375,8.4375,8.4375,8.3125,8.25,8.0625,8.0625,8.1875,8.125,8.3125,8.1875,8.4375,8.3125,8.0625,8.0625,7.875,7.8125,7.8125,7.875,8,8,8.125,8.1875,8.125,7.875,7.9375,7.875,8,8.0625,8.0625,8.1875,8.25,8.1875,8.1875,8.0625,8.0625,7.9375,7.875,7.875,7.9375,7.875,7.875,7.8125,7.8125,7.875,7.9375,8.25,8.4375,8.5,8.5625,8.625,8.8125,8.9375,9.125,9.3125,9.5,9.5,9.4375,9.5625,9.625,9.625,9.5625,9.5,9.4375,9.3125,9.3125,8.9375,8.6875,8.5,8.5,8.5,8.5,8.5,8.5625,8.5625,8.6875,8.875,8.8125,8.9375,9.0625,8.9375,9.1875,9.3125,9.375,9.5,9.5,9.375,9.3125,9.3125,9.125,9.25,9.3125,9.0625,8.875,8.8125,8.5625,8.5625,8.5,8.4375,8.3125,8.25,8.25,8.3125,8.3125,8.25,8.3125,8.3125,8.375,8.375,8.3125,8.375,8.375,8.375,8.3125,8.375,8.375,8.375,8.3125,8.4375,8.5,8.5,8.5625,8.4375,8.4375,8.6875,8.75,8.6875,8.6875,8.5625,8.5625,8.5625,8.5625,8.5625,8.5625,8.5625,8.5625,8.625,8.6875,8.75,8.5625,8.625,8.625,8.625,8.75,8.6875,0,0,0,0,0,0,0,8.0625,8.1875,8.25,8.125,8.25,8.25,8.3125,8.375,8.375,8.375,8.3125,8.3125,8.3125,8.3125,8.375,8.375,8.3125,8.25,8.3125,8.25,8.1875,8.1875,8.1875,8.125,8.125,8.125,8.1875,8.0625,8.125,8.1875,8.0625,8.125,8.25,8.125,8.125,8.25,8.25,8.25,8.25,8.25,8.3125,8.25,8.375,8.375,8.375,8.4375,8.375,8.375,8.5,8.4375,8.3125,8.375,8.3125,8.3125,8.4375,8.375,8.4375,8.25,8.25,8,7.875,8.1875,8.0625,8.1875,8.1875,8.1875,8.1875,8.1875,8.1875,8.0625,8.0625,8.0625,8.125,8.0625,8.1875,8.1875,8.0625,8.125,7.9375,7.9375,8,8,7.9375,7.8125,8.125,8.1875,8.1875,8.125,8.25,8.25,8.3125,8.375,8.4375,8.4375,8.5,8.5,8.5625,8.6875,8.625,8.625,8.625,8.6875,8.75,8.6875,8.75,8.8125,8.75,8.625,8.625,8.5625,8.625,8.625,8.625,8.6875,8.75,8.75,8.75,8.8125,8.9375,9.0625,9.125,9.0625,9.125,9.1875,9.25,9.25,9.25,9.25,9.25,9.1875,9.125,9.125,9,8.875,8.8125,8.625,8.625,8.75,8.75
9.6875,9.8125,9.875,9.75,9.75,9.75,9.75,9.8125,9.8125,9.8125,9.8125,9.8125,9.875,9.8125,10,10.1875,10,9.875,9.9375,9.9375,9.8125,9.875,9.8125,9.75,9.75,9.75,9.6875,9.625,9.5625,9.5625,9.5625,9.5625,9.4375,9.375,9.5,9.5625,9.5625,9.6875,9.8125,9.875,9.8125,9.875,9.875,9.875,9.9375,10.0625,10.1875,10.25,10.1875,10.125,10.1875,10.1875,10.1875,10.125,10.125,10.125,10.125,10.125,10.1875,10.1875,10,9.625,9.4375,9.4375,9.4375,9.25,9.3125,9.3125,9.3125,9.375,9.375,9.3125,9.375,9.4375,9.5,9.625,9.625,9.75,9.8125,9.8125,9.9375,10,10.1875,10.1875,10.1875,10.0625,10.125,10.25,10.25,10.3125,10.1875,10.1875,10.25,10.25,10.25,10.3125,10.3125,10.3125,10.375,10.375,10.5625,10.5625,10.5625,10.5625,10.5625,10.6875,10.875,10.75,11.25,11.5,11.625,0,11.4375,11.0625,11,11.0625,10.8125,10.625,10.625,10.5,10.5,10.5,0,9.9375,9.9375,10,10.125,10.125,9.9375,9.8125,9.75,9.8125,9.8125,9.75,9.8125,9.75,9.75,9.75,9.8125,9.75,9.6875,9.75,9.75,9.625,9.5625,9.5,9.4375,9.3125,9.125,9,9.0625,9,9,8.75,8.8125,8.9375,8.75,8.6875,0,8.5625,8.625,8.5625,8.8125,9.125,8.9375,8.8125,9,8.9375,9.0625,8.9375,8.875,8.875,8.9375,9.0625,9.1875,9.3125,9.375,9.375,9.25,9.375,9.4375,9.5,9.5,9.5,9.5625,9.5625,9.625,9.6875,9.75,9.6875,9.625,9.5,9.5,9.625,9.625,9.5625,9.625,9.6875,9.75,9.75,9.75,9.75,9.6875,9.6875,9.6875,9.6875,9.75,9.8125,9.8125,9.8125,9.8125,9.8125,9.75,9.6875,9.75,9.6875,9.625,9.6875,9.8125,9.8125,9.8125,9.8125,9.875,9.75,9.75,9.75,9.75,9.75,9.625,9.4375,9.375,9.0625,8.625,8.5,8.5,8.5,8.4375,8.4375,8.4375,8.3125,8.25,8.0625,8.0625,8.125,8.0625,8.25,8.1875,8.4375,8.25,8,8,7.875,7.75,7.75,7.875,8,8,8.0625,8.125,8.0625,7.875,7.875,7.8125,7.9375,8,8,8.125,8.25,8.1875,8.1875,8.125,8.125,8,7.875,7.875,7.9375,7.875,7.9375,7.8125,7.875,7.9375,8,8.25,8.4375,8.5,8.5625,8.625,8.8125,9,9.25,9.375,9.5,9.5,9.5,9.625,9.6875,9.625,9.5625,9.5,9.4375,9.3125,9.375,9,8.75,8.5625,8.5,8.5,8.5,8.5625,8.5625,8.5625,8.75,9,8.9375,9.0625,9.25,9.125,9.375,9.4375,9.5,9.5625,9.5,9.4375,9.375,9.375,9.3125,9.375,9.375,9.125,8.9375,8.8125,8.5625,8.5,8.5,8.4375,8.3125,8.1875,8.1875,8.25,8.25,8.25,8.3125,8.375,8.4375,8.4375,8.4375,8.4375,8.5,8.5,8.5,8.5,8.4375,8.4375,8.4375,8.5625,8.5625,8.5625,8.5625,8.4375,8.5,8.6875,8.75,8.75,8.75,8.5625,8.5625,8.5625,8.5625,8.5625,8.5625,8.5625,8.5625,8.625,8.6875,8.75,8.5625,8.625,8.5625,8.625,8.6875,8.625,0,0,0,0,0,0,0,8.1875,8.25,8.25,8.125,8.25,8.25,8.3125,8.375,8.375,8.375,8.3125,8.375,8.3125,8.3125,8.375,8.375,8.25,8.1875,8.25,8.25,8.125,8.125,8.125,8.1875,8.125,8.1875,8.1875,8.125,8.1875,8.25,8.125,8.1875,8.3125,8.1875,8.1875,8.3125,8.3125,8.3125,8.3125,8.25,8.3125,8.3125,8.4375,8.4375,8.4375,8.5,8.4375,8.4375,8.5625,8.5,8.4375,8.5,8.4375,8.5,8.5625,8.5,8.5,8.375,8.3125,8.0625,7.9375,8.1875,8.0625,8.125,8.125,8.125,8.1875,8.125,8.1875,8,8.0625,8,8.125,8,8.125,8.125,8,8.0625,7.875,7.875,7.9375,7.9375,7.9375,7.8125,8.125,8.1875,8.1875,8.125,8.25,8.25,8.3125,8.375,8.4375,8.4375,8.5,8.5,8.5625,8.6875,8.625,8.625,8.625,8.6875,8.75,8.75,8.8125,8.875,8.875,8.6875,8.6875,8.625,8.6875,8.625,8.625,8.6875,8.75,8.6875,8.75,8.8125,8.9375,9.0625,9.125,9,9.0625,9.125,9.25,9.1875,9.25,9.1875,9.1875,9.125,9.125,9.1875,9,8.8125,8.75,8.625,8.5625,8.6875,8.6875
9.6875,9.8125,9.875,9.75,9.75,9.75,9.75,9.8125,9.8125,9.8125,9.8125,9.8125,9.8125,9.8125,9.9375,10.125,9.9375,9.8125,9.875,9.875,9.8125,9.8125,9.75,9.75,9.75,9.75,9.6875,9.625,9.625,9.5625,9.5625,9.5625,9.5,9.375,9.5,9.5625,9.5,9.625,9.75,9.8125,9.8125,9.8125,9.8125,9.875,9.875,10,10.1875,10.1875,10.1875,10.125,10.125,10.1875,10.125,10.125,10.125,10.1875,10.1875,10.1875,10.3125,10.3125,10.1875,9.75,0,9.5,0,9.375,9.375,9.375,9.375,9.4375,9.4375,9.375,9.375,9.4375,9.5,9.625,9.625,9.75,9.75,9.75,9.875,9.9375,10.0625,10.125,10.125,10,10.125,10.1875,10.1875,10.25,10.125,10.125,10.1875,10.1875,10.25,10.25,10.3125,10.3125,10.375,10.375,10.5,10.5,10.5625,10.5625,10.5625,10.6875,10.8125,10.6875,11.125,11.4375,11.5,11.375,11,10.6875,10.6875,10.625,10.625,10.5,10.5,10.375,10.375,0,0,0,0,0,0,9.9375,9.8125,9.75,9.625,9.6875,9.6875,9.6875,9.75,9.625,9.625,9.6875,9.6875,0,0,9.625,9.6875,9.5625,9.5,9.5,9.375,9.25,9.0625,8.9375,9,9,9.125,8.875,8.875,9.0625,8.875,8.8125,8.75,8.6875,8.6875,8.625,8.8125,9.1875,9,8.875,9,8.875,8.9375,8.875,0,8.75,8.8125,8.9375,9.0625,9.3125,9.3125,9.3125,9.1875,9.3125,9.4375,9.5,9.5,9.5,9.5625,9.5625,9.625,9.75,9.75,9.6875,9.625,9.5625,9.5625,9.625,9.6875,9.625,9.625,9.6875,9.75,9.8125,9.8125,9.75,9.6875,9.6875,9.6875,9.6875,9.75,9.8125,9.8125,9.875,9.875,9.875,9.8125,9.75,9.75,9.75,9.75,9.75,9.9375,9.8125,9.8125,9.8125,9.875,9.75,9.6875,9.75,9.6875,9.6875,9.5,9.375,9.25,8.875,8.5625,8.5,8.5,8.5,8.4375,8.375,8.4375,8.3125,8.1875,8.0625,8.0625,8.125,8.0625,8.0625,8,8.375,8.125,7.875,7.9375,7.875,7.75,7.75,7.875,7.9375,7.9375,8,8.0625,8,7.875,7.875,7.8125,7.9375,8,8,8.0625,8.1875,8.125,8.125,8.0625,8.125,8.0625,7.9375,7.875,7.9375,7.9375,7.9375,7.875,7.9375,8,8.0625,8.3125,8.5,8.5625,8.625,8.8125,9,9.1875,9.3125,9.4375,9.5625,9.5625,9.5625,9.6875,9.75,9.75,9.625,9.5625,9.5625,9.375,9.4375,9.1875,8.875,8.625,8.5,8.5625,8.625,8.6875,8.6875,8.75,8.875,9.25,9.25,9.25,9.4375,9.3125,9.5,9.5625,9.5625,9.5625,9.5625,9.5,9.4375,9.4375,9.4375,9.5,9.5625,9.375,9.1875,9.0625,8.625,8.5625,8.5,8.4375,8.3125,8.25,8.25,8.3125,8.3125,8.3125,8.3125,8.4375,8.5625,8.5625,8.5625,8.5625,8.5625,8.625,8.625,8.625,8.5625,8.5625,8.5625,8.625,8.6875,8.625,8.625,8.4375,8.5,8.6875,8.8125,8.75,8.75,8.5,8.5625,8.5625,8.5625,8.5625,8.5,8.5625,8.5625,8.5625,8.625,8.6875,8.5,8.5625,8.5,8.5625,8.625,8.5625,0,0,0,0,0,0,0,8.1875,8.3125,8.25,8.1875,8.25,8.3125,8.375,8.4375,8.375,8.375,8.3125,8.3125,8.3125,8.25,8.3125,8.375,8.1875,8.125,8.25,8.1875,8.0625,8.125,8.0625,8.125,8.0625,8.125,8.125,8.125,8.1875,8.25,8.125,8.1875,8.3125,8.1875,8.25,8.3125,8.3125,8.3125,8.3125,8.3125,8.375,8.375,8.4375,8.5,8.5,8.5,8.5,8.5,8.5625,8.5625,8.5,8.5,8.4375,8.5,8.5,8.375,8.4375,8.25,8.25,8,7.875,8.125,8,8.125,8.125,8.125,8.125,8.0625,8.125,8,8,8,8.0625,7.9375,8.125,8.125,8,8.0625,7.875,7.875,7.9375,7.9375,7.9375,7.8125,8.125,8.1875,8.25,8.1875,8.3125,8.25,8.3125,8.375,8.5,8.5,8.5625,8.5625,8.625,8.6875,8.6875,8.6875,8.6875,8.75,8.8125,8.8125,8.875,9.0625,9.0625,8.875,8.8125,8.625,8.75,8.6875,8.625,8.75,8.8125,8.75,8.8125,8.875,9,9.0625,9.0625,9,9,9,9.125,9.0625,9.125,9.0625,9.0625,8.9375,9.0625,9.0625,8.875,8.75,8.625,8.5625,8.5625,8.625,8.625
9.625,9.75,9.8125,9.6875,9.6875,9.75,9.6875,9.75,9.8125,9.8125,9.75,9.75,9.8125,9.75,9.875,10.125,9.9375,9.8125,9.8125,9.875,9.75,9.8125,9.75,9.75,9.75,9.8125,9.75,9.6875,9.6875,9.625,9.625,9.625,9.5625,9.5,9.5,9.5625,9.5,9.625,9.75,9.75,9.75,9.75,9.75,9.8125,9.8125,9.875,10.0625,10.125,10.125,10.125,10.125,10.1875,10.1875,10.1875,10.1875,10.3125,10.3125,10.375,10.4375,10.4375,10.4375,10.25,10,9.75,9.875,0,9.5,9.4375,9.5,9.5,9.5,9.4375,9.4375,9.4375,9.5,9.625,9.625,9.75,9.8125,9.75,9.875,9.9375,10.0625,10.0625,10.125,10,10.125,10.1875,10.1875,10.1875,10.0625,10.0625,10.1875,10.1875,10.1875,10.25,10.3125,10.3125,10.3125,10.3125,10.5,10.4375,10.5,10.5,10.5,10.625,10.6875,10.5625,10.8125,11.1875,11.3125,10.75,10.5625,0,10.4375,10.4375,10.4375,10.375,10.375,10.1875,10.25,0,0,0,0,0,0,0,9.625,9.5625,9.5,9.5,9.5,9.5,9.5,9.4375,9.4375,9.4375,9.4375,9.375,9.3125,9.4375,9.3125,9.3125,9.3125,9.3125,9.25,9,8.875,8.75,8.8125,8.875,9,8.8125,8.875,9,8.875,8.8125,8.8125,8.75,8.75,8.6875,8.8125,9.1875,9.0625,8.9375,8.9375,8.8125,8.875,8.875,0,8.75,8.75,8.875,9,9.25,9.25,9.3125,9.1875,9.3125,9.4375,9.5,9.5625,9.5625,9.5625,9.5625,9.625,9.6875,9.6875,9.6875,9.625,9.5,9.5,9.5625,9.625,9.5625,9.5625,9.625,9.75,9.75,9.75,9.6875,9.625,9.625,9.625,9.6875,9.75,9.75,9.8125,9.8125,9.8125,9.875,9.8125,9.75,9.6875,9.75,9.75,9.75,9.875,9.8125,9.75,9.75,9.75,9.625,9.5625,9.625,9.5,9.5,9.3125,9.1875,9,8.75,8.5625,8.5625,8.5,8.5,8.4375,8.4375,8.4375,8.375,8.3125,8.1875,8.125,8.1875,8.125,8.0625,8,8.3125,8.0625,7.8125,7.875,7.875,7.6875,7.75,7.8125,7.875,7.875,7.9375,8,7.9375,7.8125,7.875,7.8125,7.9375,8,8,8,8.125,8.125,8.0625,8.0625,8.1875,8.125,8,7.9375,8,8.0625,8.0625,7.9375,8.0625,8.125,8.1875,8.375,8.5625,8.6875,8.8125,8.9375,9.125,9.25,9.375,9.5,9.625,9.625,9.625,9.6875,9.75,9.75,9.625,9.5625,9.5,9.1875,9.25,9,8.75,8.625,8.625,8.625,8.6875,8.8125,8.8125,8.9375,9.125,9.3125,9.375,9.375,9.5625,9.4375,9.5625,9.625,9.6875,9.6875,9.625,9.5625,9.5625,9.5625,9.5,9.5625,9.625,9.4375,9.25,9.1875,8.6875,8.5625,8.5625,8.4375,8.3125,8.25,8.25,8.3125,8.25,8.1875,8.25,8.375,8.5625,8.5625,8.5,8.4375,8.5,8.5,8.5625,8.5,8.4375,8.4375,8.4375,8.625,8.625,8.5625,8.5625,8.3125,8.4375,8.6875,8.75,8.75,8.6875,8.4375,8.5,8.5,8.4375,8.5,8.4375,8.4375,8.4375,8.5,8.5625,8.625,8.4375,8.4375,8.4375,8.4375,8.5625,8.4375,8.4375,0,0,0,0,0,8.1875,8.1875,8.25,8.1875,8.1875,8.25,8.3125,8.375,8.4375,8.375,8.375,8.3125,8.3125,8.25,8.1875,8.25,8.25,8.125,8.0625,8.1875,8.0625,8,8,8,8.0625,8,8.125,8.0625,8.125,8.1875,8.25,8.125,8.1875,8.3125,8.1875,8.25,8.3125,8.3125,8.3125,8.3125,8.3125,8.375,8.375,8.4375,8.4375,8.4375,8.5,8.4375,8.4375,8.5625,8.5,8.5,8.5,8.4375,8.5,8.4375,8.25,8.3125,8.125,8.1875,8,7.8125,8.0625,7.875,8,8,8,8.0625,7.9375,8,7.9375,8,7.9375,8.0625,7.9375,8.0625,8.0625,7.9375,8,7.875,7.875,7.9375,7.9375,8,7.875,8.125,8.25,8.25,8.1875,8.3125,8.3125,8.3125,8.375,8.5,8.5625,8.625,8.625,8.6875,8.75,8.75,8.75,8.75,8.75,8.875,8.875,9,9.1875,9.1875,9,8.9375,8.75,8.8125,8.75,8.75,8.8125,8.875,8.8125,8.9375,9,9,9.0625,8.9375,8.875,8.875,8.875,9,8.875,8.875,8.8125,8.875,8.75,8.875,8.875,8.75,8.625,8.5625,8.5625,8.5625,8.625,8.5625
9.5625,9.6875,9.75,9.6875,9.6875,9.6875,9.6875,9.75,9.75,9.75,9.6875,9.75,9.75,9.75,9.875,10.0625,9.9375,9.75,9.8125,9.875,9.8125,9.8125,9.8125,9.75,9.8125,9.875,9.875,9.8125,9.75,9.75,9.6875,9.6875,9.625,9.5625,9.5625,9.5625,9.5,9.5625,9.6875,9.75,9.6875,9.6875,9.6875,9.75,9.75,9.8125,10,10.0625,10.125,10.125,10.125,10.1875,10.25,10.25,10.3125,10.375,10.375,10.4375,10.5,10.5625,10.5625,10.5,0,10.3125,10.375,9.875,9.625,9.5625,9.625,9.625,9.625,9.5,9.4375,9.5,9.5625,9.625,9.625,9.75,9.8125,9.75,9.875,9.875,9.9375,9.9375,10.0625,9.9375,10.0625,10.125,10.125,10.1875,10,10.0625,10.125,10.125,10.125,10.1875,10.25,10.3125,10.3125,10.25,10.4375,10.375,10.4375,10.4375,10.4375,10.5,10.5625,10.5,10.6875,10.875,10.9375,0,10.375,10.3125,10.3125,10.3125,10.3125,10.25,10.1875,0,0,0,0,0,0,0,0,0,9.375,9.375,9.375,9.375,9.3125,9.375,9.375,9.25,9.3125,9.25,9.0625,8.9375,8.9375,9.125,8.875,8.9375,8.875,8.8125,8.8125,8.625,8.6875,8.625,8.625,8.75,8.875,8.8125,8.875,9,8.9375,8.9375,8.9375,8.9375,8.875,8.8125,9,9.3125,9.1875,9,9,8.875,9,8.9375,0,8.75,8.8125,9,9.125,9.3125,9.3125,9.375,9.25,9.375,9.5625,9.5625,9.5625,9.625,9.625,9.625,9.6875,9.75,9.75,9.625,9.5625,9.5,9.4375,9.5,9.5625,9.5625,9.5625,9.5625,9.6875,9.6875,9.6875,9.625,9.625,9.5625,9.625,9.625,9.6875,9.75,9.8125,9.8125,9.8125,9.8125,9.8125,9.75,9.6875,9.75,9.75,9.8125,9.875,9.75,9.625,9.625,9.5625,9.5,9.4375,9.4375,9.25,9.125,8.9375,8.875,8.75,8.625,8.5625,8.5625,8.5,8.5,8.4375,8.4375,8.5,8.4375,8.375,8.3125,8.25,8.25,8.1875,8.0625,8.0625,8.3125,7.9375,7.75,7.8125,7.875,7.6875,7.6875,7.8125,7.875,7.8125,7.875,7.9375,7.9375,7.8125,7.875,7.875,7.9375,8,8,8,8.125,8.125,8.0625,8.0625,8.1875,8.1875,8.0625,8.0625,8.0625,8.125,8.125,8.0625,8.1875,8.25,8.3125,8.4375,8.5625,8.6875,8.8125,8.9375,9.0625,9.25,9.375,9.5,9.625,9.5625,9.5625,9.6875,9.75,9.6875,9.5625,9.5625,9.375,8.9375,9,8.8125,8.6875,8.625,8.5625,8.625,8.6875,8.75,8.75,8.875,9.125,9.3125,9.375,9.5,9.625,9.5625,9.6875,9.75,9.8125,9.75,9.6875,9.5625,9.5625,9.5625,9.5,9.5,9.5625,9.4375,9.1875,9.125,8.625,8.5625,8.5,8.375,8.25,8.1875,8.1875,8.1875,8.0625,8,8.0625,8.3125,8.5,8.5,8.375,8.3125,8.375,8.375,8.5,8.4375,8.3125,8.3125,8.375,8.5625,8.5625,8.5,8.5,8.25,8.375,8.6875,8.875,8.8125,8.8125,8.5,8.5,8.5,8.5,8.5,8.4375,8.4375,8.5,8.5,8.5625,8.5625,8.375,8.375,8.3125,8.3125,8.4375,8.375,8.375,8.4375,0,0,0,8.3125,8.1875,8.1875,8.25,8.1875,8.1875,8.3125,8.375,8.375,8.5,8.375,8.375,8.25,8.25,8.1875,8.125,8.1875,8.1875,8,8,8.0625,8,7.9375,7.9375,7.9375,8,8,8.0625,8.0625,8.1875,8.1875,8.25,8.0625,8.1875,8.3125,8.125,8.1875,8.25,8.25,8.25,8.25,8.25,8.3125,8.3125,8.375,8.375,8.375,8.4375,8.4375,8.4375,8.5,8.5,8.5,8.4375,8.4375,8.5,8.3125,8.125,8.25,8,8,7.875,7.75,7.9375,7.8125,7.875,7.875,7.9375,7.9375,7.875,8,7.9375,8,7.9375,8,7.9375,8,8.0625,7.9375,8.0625,7.875,7.875,7.9375,7.9375,8,7.875,8.1875,8.25,8.25,8.25,8.375,8.3125,8.375,8.4375,8.5,8.5625,8.625,8.625,8.625,8.6875,8.6875,8.75,8.6875,8.6875,8.8125,8.8125,9,9.25,9.25,9,9.0625,8.75,8.8125,8.875,8.8125,8.875,8.875,8.8125,8.9375,9,8.9375,8.9375,8.8125,8.75,8.75,8.75,8.8125,8.6875,8.75,8.6875,8.6875,8.625,8.75,8.6875,8.6875,8.625,8.5625,8.625,8.625,8.6875,8.6875
9.5625,9.6875,9.8125,9.6875,9.75,9.75,9.6875,9.75,9.8125,9.75,9.6875,9.6875,9.6875,9.6875,9.8125,10.125,9.875,9.6875,9.75,9.8125,9.8125,9.8125,9.8125,9.75,9.8125,9.875,9.9375,9.875,9.8125,9.8125,9.75,9.75,9.6875,9.5625,9.5625,9.5625,9.5,9.5625,9.6875,9.6875,9.625,9.625,9.625,9.6875,9.6875,9.75,9.9375,9.9375,10.0625,10.125,10.125,10.1875,10.25,10.25,10.375,10.4375,10.4375,10.5,10.5625,10.625,10.625,10.5625,10.625,10.5625,10.5,10.375,10.0625,9.8125,9.8125,9.8125,9.6875,9.625,9.5,9.5,9.5625,9.625,9.625,9.75,9.8125,9.75,9.8125,9.8125,9.875,9.875,9.9375,9.875,9.9375,10.0625,10.0625,10.125,9.9375,9.9375,10.0625,10.0625,10.0625,10.125,10.25,10.25,10.25,10.1875,10.375,10.25,10.3125,10.3125,10.375,10.4375,10.5,10.5,10.5625,10.75,10.75,0,10.25,10.1875,10.25,0,10.25,0,0,0,0,0,0,0,0,0,0,0,9.125,9.125,9.1875,9.25,9.1875,9.25,9.3125,9.25,9.25,9.1875,8.75,8.6875,8.75,8.8125,8.625,8.6875,8.625,8.625,8.6875,8.5625,8.625,8.5625,8.5625,8.6875,8.875,8.8125,8.9375,9.0625,9.0625,9.125,0,0,9.1875,0,0,0,0,0,9.0625,8.9375,9.0625,9.0625,8.875,8.875,8.9375,9.125,9.25,9.375,9.4375,9.5,9.4375,9.5,9.625,9.6875,9.6875,9.6875,9.6875,9.75,9.8125,9.8125,9.75,9.6875,9.625,9.4375,9.4375,9.5,9.5625,9.5,9.5,9.5625,9.625,9.6875,9.6875,9.625,9.625,9.625,9.625,9.6875,9.75,9.8125,9.875,9.875,9.875,9.9375,9.9375,9.875,9.875,9.875,9.9375,9.9375,9.9375,9.8125,9.6875,9.5625,9.5,9.4375,9.375,9.375,9.125,8.9375,8.875,8.8125,8.75,8.625,8.5625,8.5625,8.5,8.4375,8.375,8.375,8.4375,8.4375,8.4375,8.375,8.3125,8.25,8.125,8,7.9375,8.125,7.8125,7.6875,7.75,7.8125,7.6875,7.6875,7.8125,7.8125,7.8125,7.8125,7.875,7.875,7.8125,7.875,7.875,7.9375,8,8,7.9375,8.125,8.0625,7.9375,8,8.125,8.1875,8.125,8.0625,8.125,8.125,8.125,8.0625,8.25,8.3125,8.375,8.5,8.5625,8.625,8.75,8.75,8.875,9.0625,9.1875,9.375,9.5,9.5,9.5625,9.625,9.6875,9.625,9.5,9.4375,9.1875,8.875,8.875,8.75,8.625,8.5625,8.5625,8.625,8.6875,8.75,8.75,8.8125,9.125,9.3125,9.375,9.5625,9.6875,9.625,9.8125,9.9375,10,9.9375,9.8125,9.625,9.5625,9.5625,9.4375,9.4375,9.5,9.3125,9.125,9,8.625,8.5625,8.5,8.3125,8.25,8.25,8.1875,8.125,7.9375,7.9375,8,8.25,8.5,8.5,8.375,8.3125,0,0,0,0,0,0,8.3125,8.5,8.5,0,8.3125,8.0625,8.375,8.6875,8.75,8.6875,8.75,0,0,8.5625,8.5625,8.5625,8.5,8.5,8.5625,8.5625,8.5625,8.625,8.375,8.375,8.3125,8.25,8.375,8.3125,8.375,8.4375,0,0,0,8.3125,8.25,8.25,8.3125,8.3125,8.25,8.375,8.4375,8.4375,8.5,8.375,8.375,8.25,8.25,8.125,8.0625,8.125,8.125,7.9375,7.9375,8,7.9375,7.875,7.875,7.875,7.9375,7.9375,8,8,8.1875,8.25,8.25,8.0625,8.125,8.3125,8,8.125,8.25,8.1875,8.1875,8.1875,8.25,8.3125,8.25,8.3125,8.3125,8.3125,8.375,8.3125,8.375,8.5,8.5,8.4375,8.375,8.375,8.375,8.125,7.9375,8.0625,7.8125,7.875,7.8125,7.6875,7.875,7.6875,7.8125,7.8125,7.8125,7.875,7.8125,8,7.9375,7.9375,7.9375,8,7.9375,8,8.0625,8,8.0625,7.875,7.875,7.9375,8,8,7.875,8.1875,8.3125,8.3125,8.3125,8.4375,8.375,8.375,8.4375,8.5625,8.5625,8.625,8.625,8.625,8.6875,8.6875,8.6875,8.6875,8.6875,8.75,8.75,8.875,9.125,9.1875,8.8125,9,8.6875,8.75,8.875,8.8125,8.8125,8.8125,8.75,8.9375,8.9375,8.875,8.8125,8.6875,8.6875,8.6875,8.6875,8.6875,8.6875,8.6875,8.6875,8.6875,8.625,8.6875,8.625,8.6875,8.6875,8.625,8.75,8.8125,8.875,8.875
9.625,9.75,9.875,9.75,9.8125,9.8125,9.75,9.8125,9.875,9.75,9.6875,9.6875,9.6875,9.6875,9.8125,10.1875,9.875,9.6875,9.6875,9.8125,9.75,9.8125,9.75,9.75,9.8125,9.875,9.9375,9.875,9.8125,9.8125,9.75,9.75,9.6875,9.625,9.5625,9.5625,9.5625,9.5625,9.6875,9.6875,9.625,9.625,9.625,9.625,9.6875,9.75,9.875,9.9375,10.0625,10.125,10.1875,10.25,10.3125,10.25,10.375,10.5,10.5,10.5,10.625,10.6875,10.6875,10.625,10.6875,10.5625,10.5625,10.4375,0,10.0625,10.0625,9.875,9.75,9.625,9.4375,9.5,9.5,9.5625,9.5625,9.6875,9.75,9.6875,9.75,9.75,9.8125,9.75,9.875,9.8125,9.875,10,10,10.0625,9.875,9.9375,9.9375,9.9375,9.9375,10,10.1875,10.1875,10.1875,10.0625,10.3125,10.125,10.1875,10.1875,10.25,10.375,10.4375,10.375,10.5,10.625,0,9.9375,0,0,0,0,0,0,0,0,0,0,0,0,0,0,8.8125,8.9375,8.9375,8.9375,9,9,9,9,9.1875,9,9,8.875,8.5625,8.5625,8.625,8.625,8.5,8.5625,8.5,8.5625,8.625,8.5625,8.5625,8.5625,8.5625,8.6875,8.8125,8.875,9,9.125,9.1875,0,0,9.3125,9.3125,0,0,0,0,0,9,8.875,9,9.0625,8.875,8.875,9,9.1875,9.3125,9.4375,9.5,9.5625,9.5,9.625,9.6875,9.75,9.75,9.8125,9.75,9.75,9.8125,9.875,9.75,9.625,9.5625,9.4375,9.4375,9.5,9.5625,9.5,9.5625,9.5625,9.625,9.6875,9.6875,9.6875,9.6875,9.6875,9.6875,9.75,9.8125,9.875,9.9375,9.9375,9.9375,10,10.0625,10.0625,10.0625,10,10,10,10,9.8125,9.6875,9.5625,9.5625,9.5,9.4375,9.3125,9.125,8.875,8.875,8.8125,8.75,8.625,8.5625,8.5625,8.5,8.4375,8.3125,8.375,8.375,8.3125,8.375,8.375,8.3125,8.25,8,7.875,7.8125,7.9375,7.75,7.625,7.75,7.8125,7.625,7.6875,7.75,7.8125,7.75,7.75,7.8125,7.875,7.8125,7.875,7.875,7.9375,8,8,7.875,8.0625,8,7.875,8,8.125,8.1875,8.1875,8.125,8.125,8.1875,8.1875,8.1875,8.3125,8.375,8.4375,8.5625,8.625,8.6875,8.75,8.75,8.875,9.0625,9.125,9.3125,9.4375,9.4375,9.5,9.625,9.6875,9.625,9.5,9.4375,9.125,8.8125,8.8125,8.6875,8.625,8.5625,8.5625,8.625,8.6875,8.625,8.625,8.75,8.9375,9.1875,9.25,9.5,9.625,9.5625,9.6875,9.8125,9.75,9.75,0,0,0,0,9.25,9.25,9.375,9.125,9,8.875,8.625,8.5625,8.5,8.375,8.3125,8.4375,8.375,8.25,8,7.9375,8,8.3125,0,8.5,0,0,0,0,0,0,0,0,0,0,0,0,0,7.875,8.25,8.625,8.6875,8.625,8.6875,8.5,0,0,8.5625,8.5625,8.4375,8.5,8.5625,8.5625,8.625,8.625,8.375,8.375,8.25,8.25,8.375,8.375,8.375,8.4375,8.5,0,0,8.4375,8.3125,8.3125,8.375,8.375,8.375,8.4375,8.5,8.5,8.5625,8.4375,8.375,8.25,8.1875,8.125,8,8.0625,8,7.875,7.875,7.9375,7.875,7.8125,7.875,7.8125,7.9375,7.875,7.9375,8,8.1875,8.25,8.25,8.125,8.125,8.3125,8.0625,8.1875,8.25,8.1875,8.1875,8.125,8.1875,8.25,8.25,8.25,8.25,8.25,8.375,8.25,8.3125,8.4375,8.4375,8.3125,8.3125,8.3125,8.3125,8.0625,7.875,7.9375,7.8125,7.8125,7.75,7.6875,7.8125,7.6875,7.75,7.8125,7.8125,7.8125,7.75,7.9375,7.875,7.9375,7.875,8,7.9375,8,8,8,8,7.8125,7.875,8,8,8,7.875,8.25,8.375,8.375,8.375,8.4375,8.4375,8.4375,8.5,8.5625,8.5625,8.625,8.625,8.625,8.6875,8.6875,8.75,8.6875,8.6875,8.6875,8.6875,8.8125,8.9375,9,8.75,8.875,8.6875,8.75,8.8125,8.8125,8.8125,8.75,8.6875,8.875,8.8125,8.75,8.75,8.625,8.625,8.625,8.625,8.6875,8.625,8.625,8.625,8.625,8.5625,8.625,8.5625,8.6875,8.6875,8.625,8.875,9.1875,9.1875,9.0625
9.625,9.8125,9.9375,9.875,9.875,9.875,9.8125,9.9375,10.0625,9.875,9.6875,9.6875,9.6875,9.6875,9.8125,10.1875,9.875,9.625,9.625,9.6875,9.6875,9.6875,9.6875,9.6875,9.6875,9.75,9.875,9.8125,9.8125,9.75,9.75,9.75,9.6875,9.6875,9.5625,9.625,9.5625,9.5625,9.625,9.6875,9.625,9.625,9.625,9.625,9.625,9.6875,9.8125,9.875,10,10.0625,10.125,10.1875,10.25,10.25,10.3125,10.4375,10.4375,10.5,10.5625,10.625,10.6875,10.6875,10.6875,10.625,10.625,0,0,0,10.0625,9.9375,9.75,9.625,9.4375,9.4375,9.5,9.5625,9.5,9.625,9.6875,9.6875,9.75,9.75,9.75,9.75,9.9375,9.8125,9.875,10,10,10.0625,9.875,9.875,9.875,9.875,9.875,9.9375,10.125,10.125,10.0625,9.9375,10.1875,10,10,10,9.9375,10.125,10.25,10.25,10.375,10.5,0,0,0,0,0,0,0,0,0,0,0,0,0,0,0,0,8.6875,8.75,8.75,8.8125,8.8125,8.6875,8.6875,8.625,8.8125,8.6875,8.75,8.6875,8.4375,8.5,8.5625,8.5,8.5,8.5625,8.5625,8.5625,8.625,8.625,8.625,8.625,8.625,8.75,8.9375,8.9375,9.125,9.25,9.25,9.3125,9.375,9.4375,9.4375,9.3125,0,0,9.1875,9.0625,9,8.8125,8.875,8.875,8.8125,8.8125,8.875,9.0625,9.1875,9.375,9.4375,9.5625,9.5625,9.625,9.6875,9.75,9.75,9.8125,9.75,9.75,9.75,9.75,9.6875,9.625,9.5625,9.375,9.375,9.4375,9.5,9.5,9.5,9.5625,9.625,9.6875,9.75,9.6875,9.6875,9.6875,9.6875,9.75,9.8125,9.9375,10,10,10,10.0625,10.125,10.0625,10,9.875,9.9375,9.875,9.8125,9.6875,9.5625,9.5,9.4375,9.375,9.3125,9.1875,8.9375,8.8125,8.8125,8.75,8.75,8.625,8.5625,8.5625,8.5,8.375,8.3125,8.3125,8.3125,8.25,8.3125,8.3125,8.3125,8.25,7.9375,7.8125,7.75,7.8125,7.6875,7.625,7.75,7.8125,7.625,7.6875,7.75,7.75,7.6875,7.6875,7.75,7.8125,7.8125,7.875,7.875,7.9375,8.0625,8,7.875,8,8,7.875,8,8.125,8.1875,8.1875,8.125,8.125,8.1875,8.1875,8.25,8.375,8.375,8.5,8.5625,8.625,8.6875,8.75,8.75,8.875,9,9.0625,9.25,9.4375,9.4375,9.5,9.625,9.6875,9.625,9.5625,9.5,9,8.6875,8.6875,8.625,8.5625,8.5625,8.5625,8.5625,8.5625,8.5625,8.5,8.625,8.75,8.9375,9,9.375,9.5,9.4375,0,0,0,0,0,0,0,0,9.0625,9.125,9.1875,9,8.9375,8.875,8.6875,8.625,8.5625,8.5,8.4375,8.5625,8.5625,8.4375,8.0625,8,0,0,0,0,0,0,0,0,0,0,0,0,0,0,0,0,0,7.75,8.1875,8.5625,8.625,8.5625,8.6875,0,0,0,0,8.5625,8.4375,8.5,8.5625,8.5625,8.5625,0,8.3125,8.3125,8.25,8.1875,8.3125,8.3125,8.375,8.4375,8.5,0,8.5,8.4375,8.375,8.375,0,0,8.4375,8.5,8.5625,8.5625,8.625,8.4375,8.375,8.25,8.1875,8.0625,8,8,7.9375,7.8125,7.8125,7.9375,7.8125,7.8125,7.875,7.8125,7.9375,7.9375,7.9375,8.0625,8.25,8.3125,8.25,8.1875,8.1875,8.3125,8.125,8.25,8.3125,8.1875,8.1875,8.125,8.1875,8.25,8.25,8.25,8.25,8.25,8.3125,8.1875,8.25,8.375,8.3125,8.25,8.1875,8.25,8.1875,8,7.8125,7.8125,7.875,7.75,7.75,7.6875,7.75,7.6875,7.75,7.75,7.75,7.8125,7.75,7.875,7.8125,7.875,7.875,7.875,7.9375,7.9375,7.9375,7.9375,7.9375,7.8125,7.875,8,8.0625,8.0625,7.9375,8.3125,8.4375,8.375,8.375,8.5,8.4375,8.5,8.5,8.5625,8.5625,8.625,8.625,8.625,8.625,8.6875,8.75,8.6875,8.6875,8.6875,8.6875,8.8125,8.9375,8.9375,8.75,8.875,8.75,8.75,8.8125,8.8125,8.8125,8.6875,8.6875,8.875,8.8125,8.75,8.75,8.625,8.625,8.625,8.625,8.6875,8.625,8.5625,8.625,8.625,8.5625,8.625,8.5625,8.6875,8.75,8.6875,9.0625,9.5,9.375,9.25
9.6875,9.875,10,9.9375,9.9375,9.9375,9.9375,10.0625,10.1875,10,9.8125,9.75,9.6875,9.6875,9.8125,10.1875,9.75,9.5625,9.5625,9.6875,9.625,9.625,9.625,9.625,9.6875,9.6875,9.8125,9.8125,9.75,9.75,9.6875,9.75,9.6875,9.6875,9.625,9.625,9.5625,9.5625,9.625,9.625,9.625,9.625,9.5625,9.5625,9.625,9.6875,9.75,9.8125,9.9375,9.9375,10,10.125,10.1875,10.1875,10.25,10.4375,10.4375,10.5,10.5625,10.625,10.6875,10.625,10.6875,10.625,10.625,0,0,0,10.125,10,9.875,9.75,9.4375,9.5,9.5,9.5625,9.5625,9.625,9.75,9.6875,9.8125,9.75,9.75,9.8125,9.9375,9.8125,9.875,10,10,10.0625,9.9375,9.875,9.875,9.875,9.875,9.875,10.0625,10.0625,10,9.875,10.125,9.8125,9.8125,9.8125,9.6875,9.8125,9.875,9.9375,10.0625,10.125,0,9.25,9.3125,9,0,0,0,0,0,0,0,0,0,0,0,8.625,8.6875,8.75,8.75,8.75,8.75,8.6875,8.6875,8.625,8.6875,8.625,8.6875,8.625,8.4375,8.5,8.5,8.4375,8.5,8.5625,8.5625,8.5625,8.625,8.625,8.625,8.625,8.6875,8.8125,9.125,9.125,9.25,9.3125,9.375,9.4375,9.4375,9.5625,9.5,9.375,9.375,9.5,9.25,9,8.9375,8.75,8.75,8.75,8.75,8.6875,8.75,8.9375,9.0625,9.3125,9.4375,9.5625,9.5,9.625,9.6875,9.75,9.75,9.8125,9.75,9.75,9.75,9.6875,9.625,9.5625,9.4375,9.3125,9.3125,9.375,9.4375,9.5,9.5,9.5,9.625,9.6875,9.6875,9.6875,9.6875,9.6875,9.75,9.8125,9.875,9.9375,10.0625,10,10,10.125,10.125,10.0625,9.9375,9.8125,9.8125,9.8125,9.75,9.625,9.5,9.4375,9.3125,9.25,9.125,8.9375,8.8125,8.75,8.75,8.75,8.6875,8.625,8.5625,8.5625,8.5,8.375,8.3125,8.3125,8.3125,8.25,8.3125,8.3125,8.3125,8.25,7.9375,7.75,7.6875,7.75,7.625,7.625,7.6875,7.75,7.625,7.625,7.75,7.75,7.6875,7.6875,7.75,7.8125,7.8125,7.875,7.9375,8,8.0625,8,7.9375,8.0625,8,7.875,8.0625,8.1875,8.1875,8.1875,8.1875,8.1875,8.25,8.25,8.3125,8.375,8.4375,8.5,8.5625,8.625,8.6875,8.75,8.75,8.875,8.9375,9,9.1875,9.375,9.375,9.5,9.625,9.6875,9.625,9.5,9.4375,8.875,8.625,8.625,8.625,8.5625,8.5625,8.5,8.5625,8.5625,8.5,8.5,8.5,8.625,8.75,8.75,9.125,9.375,9.3125,0,0,0,0,0,0,0,0,8.875,9,9.0625,8.875,8.8125,8.75,8.625,8.625,8.5625,8.4375,8.4375,8.5625,0,8.375,7.9375,7.875,0,0,0,0,0,0,0,0,0,0,0,0,0,0,0,0,0,7.6875,8.125,8.5625,8.6875,0,0,0,0,0,0,0,8.4375,8.4375,8.5625,8.5625,0,0,8.3125,8.25,8.1875,8.1875,8.3125,8.3125,8.3125,8.375,8.5,8.625,0,0,0,0,0,0,8.5625,8.625,8.6875,8.6875,8.75,8.5,8.4375,8.25,8.1875,8.0625,8,8,7.9375,7.8125,7.8125,7.875,7.8125,7.8125,7.875,7.8125,7.9375,7.9375,8,8.125,8.3125,8.3125,8.25,8.1875,8.1875,8.3125,8.125,8.25,8.3125,8.125,8.125,8.125,8.1875,8.25,8.25,8.1875,8.1875,8.1875,8.25,8.125,8.1875,8.3125,8.25,8.1875,8.125,8.25,8.125,8,7.875,7.875,7.9375,7.8125,7.8125,7.6875,7.8125,7.6875,7.75,7.75,7.75,7.8125,7.6875,7.875,7.8125,7.8125,7.8125,7.8125,7.875,7.875,7.9375,7.875,7.875,7.75,7.8125,8,8.0625,8.0625,7.9375,8.375,8.5,8.4375,8.4375,8.5,8.4375,8.5,8.5,8.5625,8.5625,8.5625,8.625,8.625,8.625,8.6875,8.75,8.6875,8.6875,8.6875,8.6875,8.8125,8.9375,8.9375,8.75,8.9375,8.875,8.8125,8.875,8.875,8.875,8.75,8.6875,8.875,8.8125,8.75,8.75,8.625,8.625,8.625,8.625,8.625,8.5625,8.5625,8.5625,8.5625,8.5,8.5625,8.5625,8.6875,8.75,8.6875,9.25,9.5625,9.4375,9.3125
9.75,9.9375,10.125,10.0625,10,10.125,10.0625,10.1875,10.3125,10.25,9.9375,9.875,9.75,9.6875,9.875,10.1875,9.6875,9.5,9.5625,9.625,9.5625,9.5625,9.5625,9.5625,9.625,9.625,9.75,9.75,9.75,9.6875,9.6875,9.6875,9.75,9.6875,9.625,9.625,9.5625,9.5625,9.625,9.625,9.625,9.5625,9.5,9.5625,9.5625,9.625,9.75,9.75,9.8125,9.875,9.9375,10,10.125,10.125,10.1875,10.3125,10.3125,10.375,10.5,10.5625,10.5625,10.5625,10.5625,0,0,0,0,0,10.125,10,9.9375,9.8125,9.5,9.5,9.5,9.5625,9.5625,9.6875,9.75,9.75,9.8125,9.75,9.75,9.8125,9.9375,9.75,9.875,10,10.0625,10.0625,9.9375,9.875,9.875,9.8125,9.875,9.875,10,9.9375,9.9375,9.875,10,9.75,9.6875,9.6875,9.5625,9.625,9.6875,9.6875,9.6875,9.625,0,9.125,9,8.75,0,0,0,0,0,0,0,8.4375,8.4375,8.5625,8.5625,8.625,8.625,8.6875,8.75,8.75,8.75,8.6875,8.6875,8.625,8.6875,8.625,8.6875,8.6875,8.4375,8.5625,8.5625,8.4375,8.5625,8.5625,8.5625,8.625,8.6875,8.625,8.6875,8.6875,8.6875,8.875,9.1875,9.1875,9.25,9.375,9.375,9.5,9.5,9.5625,9.5625,9.4375,0,0,9.25,9,8.9375,8.6875,8.6875,8.75,8.6875,8.6875,8.75,8.875,9.0625,9.375,9.5,9.625,9.5625,9.6875,9.75,9.8125,9.75,9.75,9.6875,9.6875,9.6875,9.6875,9.5625,9.4375,9.375,9.25,9.25,9.3125,9.4375,9.4375,9.4375,9.5,9.5625,9.6875,9.6875,9.6875,9.6875,9.75,9.8125,9.8125,9.875,10,10.0625,10.0625,10.0625,10.1875,10.1875,10.125,10,9.8125,9.8125,9.75,9.625,9.5,9.4375,9.3125,9.1875,9.125,8.9375,8.75,8.6875,8.6875,8.75,8.6875,8.625,8.5625,8.5625,8.5625,8.5,8.3125,8.25,8.25,8.3125,8.25,8.3125,8.3125,8.25,8.1875,7.875,7.75,7.75,7.8125,7.625,7.6875,7.75,7.75,7.625,7.625,7.75,7.75,7.6875,7.625,7.6875,7.75,7.8125,7.875,7.875,7.9375,8,7.9375,7.875,8,7.9375,7.875,8,8.1875,8.25,8.25,8.3125,8.25,8.3125,8.3125,8.375,8.5,8.5,8.5625,8.625,8.6875,8.6875,8.75,8.75,8.8125,8.9375,8.9375,9.125,9.25,9.3125,9.4375,9.5,9.5625,9.5,9.375,9.3125,8.8125,8.6875,8.6875,8.625,8.625,8.5625,8.5625,8.5625,8.5625,8.5,8.5,8.5,8.5625,8.625,8.625,8.875,9.125,0,0,0,0,0,0,0,0,0,8.75,8.875,8.8125,8.75,8.6875,8.5625,8.5,8.5625,8.5,8.4375,8.4375,8.5,8.5,8.25,7.875,7.8125,8,8.3125,0,0,0,0,0,0,0,0,0,0,0,0,0,0,0,0,8,8.5625,8.625,0,0,0,0,0,0,0,0,8.5,8.5625,0,0,0,8.375,0,8.1875,8.25,8.3125,8.3125,8.375,8.4375,0,0,0,0,0,0,0,0,8.625,8.6875,8.75,8.8125,8.875,8.625,8.5,8.3125,8.25,8.1875,8.0625,8.0625,8,7.875,7.875,7.9375,7.875,7.875,7.875,7.8125,8,7.9375,8.0625,8.1875,8.3125,8.3125,8.25,8.125,8.125,8.25,8.0625,8.25,8.25,8.125,8.0625,8.0625,8.1875,8.25,8.25,8.1875,8.25,8.25,8.3125,8.1875,8.25,8.3125,8.3125,8.25,8.1875,8.3125,8.1875,8.125,7.9375,8,8.0625,7.875,7.875,7.75,7.875,7.75,7.75,7.75,7.8125,7.875,7.6875,7.875,7.8125,7.8125,7.8125,7.8125,7.875,7.875,7.875,7.875,7.875,7.8125,7.8125,8,8.0625,8.125,8.0625,8.375,8.625,8.5,8.5,8.625,8.5,8.5,8.5,8.625,8.5625,8.5625,8.625,8.625,8.625,8.6875,8.75,8.6875,8.6875,8.6875,8.625,8.8125,8.9375,8.9375,8.75,8.9375,8.875,8.8125,8.875,8.875,8.875,8.75,8.6875,8.875,8.8125,8.75,8.75,8.625,8.625,8.625,8.625,8.6875,8.5625,8.5625,8.5625,8.5625,8.5,8.5625,8.5625,8.6875,8.75,8.6875,9.25,9.5625,9.375,9.3125
9.8125,10,10.1875,10.1875,10.125,10.25,10.1875,10.3125,10.4375,10.375,10.0625,10.0625,9.9375,9.8125,9.9375,10.25,9.75,9.5,9.5625,9.625,9.5625,9.5625,9.5625,9.5625,9.625,9.625,9.6875,9.75,9.75,9.6875,9.625,9.6875,9.6875,9.6875,9.625,9.625,9.625,9.625,9.625,9.6875,9.6875,9.625,9.5625,9.5625,9.5625,9.6875,9.75,9.75,9.8125,9.8125,9.875,9.875,9.9375,9.9375,9.9375,10.0625,10.125,10.25,10.4375,0,0,10.4375,0,0,0,0,0,10.25,10.125,10.0625,10,9.9375,9.625,9.5625,9.5625,9.625,9.625,9.75,9.8125,9.8125,9.875,9.875,9.875,9.875,10,9.75,9.875,10,10.0625,10.0625,9.9375,9.875,9.8125,9.8125,9.8125,9.8125,9.875,9.875,9.875,9.8125,9.9375,9.6875,9.625,9.625,9.5,9.5625,9.5625,9.5625,9.5625,9.5,9.375,8.9375,8.8125,8.625,0,0,0,0,0,8.4375,0,8.375,8.375,8.5,8.5,8.5,8.5625,8.5625,8.625,8.625,8.6875,8.625,8.625,8.625,8.625,8.625,8.6875,8.6875,8.5625,8.5625,8.5625,8.5,8.5625,8.5625,8.5625,8.625,8.6875,8.625,8.6875,8.6875,8.6875,8.8125,9.125,9.125,9.1875,9.3125,9.375,9.5,9.5,9.625,9.5625,0,0,0,9.125,8.9375,8.8125,8.6875,8.6875,8.75,8.6875,8.6875,8.75,8.875,9.0625,9.375,9.4375,9.5625,9.5625,9.6875,9.75,9.8125,9.8125,9.8125,9.6875,9.75,9.6875,9.625,9.5625,9.4375,9.3125,9.1875,9.1875,9.25,9.375,9.3125,9.3125,9.4375,9.5,9.625,9.625,9.625,9.625,9.6875,9.75,9.8125,9.875,9.9375,10,10,10,10.125,10.125,10.0625,9.875,9.75,9.75,9.625,9.5625,9.4375,9.3125,9.1875,9.0625,9,8.8125,8.6875,8.625,8.625,8.6875,8.6875,8.625,8.5625,8.5625,8.5625,8.5,8.25,8.1875,8.25,8.25,8.25,8.25,8.3125,8.1875,8.125,7.9375,7.8125,7.8125,7.8125,7.6875,7.6875,7.8125,7.8125,7.625,7.6875,7.8125,7.8125,7.6875,7.6875,7.75,7.75,7.8125,7.875,7.9375,7.9375,7.9375,7.9375,7.875,8,7.9375,7.875,8.0625,8.25,8.3125,8.3125,8.375,8.3125,8.375,8.375,8.4375,8.5625,8.5625,8.625,8.625,8.6875,8.75,8.75,8.75,8.8125,8.875,8.9375,9,9.1875,9.25,9.375,9.4375,9.5,9.4375,9.3125,9.25,8.8125,8.75,8.6875,8.6875,8.625,8.625,8.625,8.5625,8.5625,8.5,8.5,8.5,8.5625,8.625,8.625,8.75,8.9375,8.875,0,0,0,0,0,0,0,0,8.6875,8.8125,8.8125,8.6875,8.6875,8.5625,8.5,8.5,8.4375,8.375,8.375,8.5,8.5,8.1875,7.875,7.8125,8,8.3125,0,0,0,0,0,0,0,0,0,0,0,0,0,0,0,0,7.9375,8.4375,0,0,0,0,0,0,0,0,0,8.5625,8.625,0,0,0,0,0,0,0,0,0,0,0,0,0,0,0,0,0,0,0,8.625,8.6875,8.8125,8.8125,8.9375,8.6875,0,8.375,8.25,8.1875,8.125,8.125,8,7.875,7.875,7.9375,7.875,7.875,7.875,7.8125,8,7.9375,8,8.125,8.25,8.25,8.1875,8.125,8.125,8.1875,7.9375,8.1875,8.1875,8,8,8,8.125,8.25,8.1875,8.125,8.25,8.25,8.3125,8.25,8.3125,8.375,8.375,8.3125,8.3125,8.375,8.25,8.1875,8.0625,8.125,8.1875,8.0625,8.0625,7.875,8.0625,7.875,7.8125,7.8125,7.875,7.9375,7.75,7.875,7.8125,7.8125,7.8125,7.75,7.875,7.9375,7.9375,7.875,7.875,7.8125,7.8125,8,8.0625,8.1875,8.125,8.4375,8.75,8.5625,8.5625,8.625,8.5,8.5,8.5,8.625,8.625,8.625,8.625,8.6875,8.625,8.6875,8.75,8.6875,8.625,8.6875,8.625,8.8125,8.9375,8.875,8.75,8.875,8.8125,8.8125,8.8125,8.875,8.875,8.6875,8.6875,8.875,8.8125,8.75,8.75,8.625,8.625,8.625,8.625,8.6875,8.5625,8.5625,8.5625,8.5625,8.5,8.5625,8.5625,8.6875,8.6875,8.625,9.1875,9.5,9.3125,9.3125
9.8125,10,10.1875,10.1875,10.125,10.25,10.1875,10.3125,10.4375,10.4375,10.125,10.1875,10,9.9375,10.125,10.375,9.9375,9.5625,9.5625,9.625,9.5625,9.5,9.5,9.5,9.625,9.625,9.75,9.75,9.75,9.6875,9.6875,9.6875,9.6875,9.6875,9.625,9.6875,9.6875,9.625,9.6875,9.6875,9.6875,9.625,9.5625,9.5625,9.5625,9.6875,9.75,9.75,9.8125,9.8125,9.8125,9.75,9.875,9.8125,9.8125,9.875,0,0,0,0,0,0,0,0,0,0,0,10.125,10,10,10,10,9.6875,9.625,9.625,9.625,9.6875,9.8125,9.9375,9.875,10,9.9375,9.9375,9.9375,10,9.75,9.875,10,10,10.0625,9.9375,9.875,9.8125,9.8125,9.8125,9.75,9.8125,9.8125,9.8125,9.6875,9.75,9.5625,9.5625,9.5,9.4375,9.4375,9.375,9.375,9.375,9.3125,9,8.6875,8.625,8.5,8.375,0,0,0,0,8.375,8.5,8.3125,8.375,8.5,8.4375,8.5,8.5,8.5625,8.625,8.625,8.625,8.625,8.625,8.625,8.625,8.625,8.6875,8.6875,8.5625,8.625,8.625,8.5625,8.625,8.625,8.625,8.6875,8.75,8.75,8.75,8.75,8.75,8.9375,9.1875,9.125,9.1875,9.25,9.375,9.4375,9.5,9.5625,9.5625,0,0,0,9.125,8.875,8.8125,8.625,8.6875,8.75,8.6875,8.6875,8.75,8.8125,8.9375,9.25,9.375,9.5625,9.5625,9.625,9.75,9.8125,9.8125,9.8125,9.6875,9.75,9.6875,9.625,9.5625,9.4375,9.3125,9.125,9.125,9.1875,9.3125,9.25,9.25,9.375,9.4375,9.5625,9.5625,9.5625,9.625,9.625,9.6875,9.75,9.8125,9.875,9.9375,9.9375,9.9375,10.0625,10.0625,10,9.8125,9.625,9.625,9.5625,9.4375,9.3125,9.125,9,8.875,8.8125,8.6875,8.5625,8.5625,8.625,8.6875,8.6875,8.625,8.625,8.5625,8.625,8.5625,8.375,8.3125,8.3125,8.3125,8.3125,8.3125,8.375,8.25,8.125,7.9375,7.875,7.8125,7.875,7.625,7.6875,7.75,7.75,7.625,7.6875,7.8125,7.8125,7.75,7.6875,7.75,7.75,7.8125,7.875,7.875,7.9375,7.9375,7.9375,7.8125,8,7.9375,7.875,8.0625,8.25,8.3125,8.375,8.4375,8.375,8.4375,8.4375,8.5,8.5625,8.625,8.625,8.6875,8.75,8.75,8.75,8.6875,8.75,8.875,8.875,8.9375,9.0625,9.125,9.3125,9.375,9.4375,9.25,9.25,9.1875,8.8125,8.75,8.75,8.6875,8.625,8.625,8.625,8.5625,8.5625,8.5,8.5,8.5,8.5625,8.625,8.5625,8.6875,8.8125,8.8125,8.75,0,0,0,0,0,0,8.5625,8.6875,8.75,8.75,8.6875,8.625,8.5625,8.5,8.5,8.375,8.3125,8.375,8.5,8.5,8.3125,7.9375,7.875,8.0625,8.375,0,0,0,0,0,0,0,0,0,0,0,0,0,0,0,0,0,0,0,0,0,0,0,0,0,0,0,8.5625,8.625,0,0,0,0,0,0,0,0,0,0,0,0,0,0,0,0,0,0,0,8.625,8.6875,8.8125,8.8125,8.875,8.6875,8.5,8.375,8.25,8.1875,8.125,8.125,8,7.875,7.875,8,7.875,7.875,7.875,7.8125,7.9375,7.9375,8,8.125,8.25,8.25,8.1875,8.0625,8.0625,8.125,7.875,8.125,8.125,8,7.9375,8,8.125,8.25,8.25,8.1875,8.25,8.25,8.375,8.3125,8.375,8.4375,8.4375,8.375,8.375,8.375,8.3125,8.25,8.125,8.1875,8.25,8.0625,8.125,7.9375,8.125,7.9375,7.875,7.875,7.9375,8,7.8125,7.9375,7.875,7.875,7.875,7.8125,7.9375,8,7.9375,7.875,7.875,7.8125,7.8125,7.9375,8,8.125,8.125,8.375,8.75,8.625,8.625,8.6875,8.5,8.5625,8.5625,8.625,8.625,8.625,8.6875,8.6875,8.625,8.6875,8.75,8.6875,8.625,8.6875,8.625,8.8125,8.875,8.875,8.6875,8.8125,8.75,8.75,8.75,8.8125,8.8125,8.6875,8.6875,8.8125,8.75,8.75,8.6875,8.625,8.625,8.625,8.625,8.6875,8.5625,8.5625,8.5625,8.5625,8.5,8.5625,8.5,8.625,8.625,8.5625,9.0625,9.5,9.3125,9.3125
9.75,10,10.1875,10.25,10.1875,10.25,10.1875,10.3125,10.4375,10.4375,10.25,10.25,10.125,10,10.1875,10.4375,10.125,9.625,9.5625,9.6875,9.5625,9.5625,9.5,9.5,9.625,9.625,9.75,9.75,9.75,9.75,9.6875,9.6875,9.6875,9.6875,9.6875,9.6875,9.6875,9.625,9.6875,9.6875,9.6875,9.625,9.5625,9.5,9.5625,9.625,9.75,9.75,9.8125,9.8125,9.75,9.75,9.8125,9.75,9.75,9.8125,9.8125,10.0625,10.25,0,0,10.25,0,0,0,0,0,10,9.9375,10,10,10,9.6875,9.625,9.625,9.6875,9.6875,9.875,10,9.9375,10.0625,10,10,9.9375,10,9.75,9.875,9.9375,9.9375,10,9.875,9.8125,9.75,9.75,9.75,9.6875,9.75,9.75,9.75,9.625,9.625,9.4375,9.375,9.3125,9.25,9.25,9.0625,9.125,9.125,9,8.75,8.5625,8.5625,8.5,8.4375,8.4375,0,0,8.4375,8.375,8.4375,8.3125,8.3125,8.4375,8.4375,8.4375,8.5,8.5,8.5625,8.5625,8.625,8.5625,8.5625,8.5625,8.625,8.625,8.625,8.625,8.5625,8.625,8.6875,8.625,8.625,8.6875,8.6875,8.75,8.9375,8.875,8.875,8.9375,9,9.125,9.3125,9.25,9.3125,9.3125,9.375,9.4375,9.5,9.625,9.5625,9.375,0,0,9,8.875,8.8125,8.6875,8.6875,8.75,8.75,8.75,8.75,8.8125,8.9375,9.1875,9.3125,9.5,9.5625,9.625,9.75,9.75,9.75,9.75,9.6875,9.6875,9.625,9.5625,9.5,9.375,9.1875,9.0625,9.0625,9.0625,9.25,9.1875,9.25,9.3125,9.375,9.5,9.5625,9.5625,9.5625,9.625,9.6875,9.75,9.8125,9.875,9.875,9.875,9.875,10,9.9375,9.875,9.6875,9.5625,9.5625,9.4375,9.3125,9,8.8125,8.8125,8.6875,8.6875,8.5625,8.5625,8.5625,8.5625,8.625,8.6875,8.625,8.625,8.625,8.625,8.5625,8.4375,8.4375,8.4375,8.4375,8.4375,8.4375,8.4375,8.3125,8.1875,8,7.9375,7.875,7.875,7.6875,7.75,7.75,7.8125,7.625,7.6875,7.8125,7.8125,7.75,7.75,7.75,7.8125,7.8125,7.9375,7.9375,7.9375,8,8,7.8125,8,8.0625,7.875,8.1875,8.3125,8.3125,8.375,8.4375,8.4375,8.5,8.5,8.5625,8.625,8.625,8.6875,8.6875,8.75,8.75,8.75,8.75,8.8125,8.875,8.875,8.875,9,9.0625,9.25,9.3125,9.3125,9.0625,9.125,9.0625,8.8125,8.8125,8.75,8.6875,8.625,8.625,8.5625,8.5,8.5,8.5,8.5,8.5,8.5625,8.5625,8.5,8.5625,8.625,8.625,8.5625,8.6875,8.5625,8.625,8.5625,8.5,8.5,8.5,8.625,8.6875,8.6875,8.625,8.625,8.5,8.4375,8.5,8.375,8.3125,8.375,8.5,8.5625,8.375,7.9375,7.875,8.0625,8.375,0,8.5,0,0,0,0,0,0,0,0,0,0,0,0,0,0,0,0,0,0,0,0,0,0,0,0,8.5625,8.5625,8.625,0,0,0,0,0,0,0,0,0,0,0,0,0,0,0,0,8.5,8.625,8.5625,8.625,8.6875,8.8125,8.6875,8.8125,8.625,8.4375,8.3125,8.1875,8.125,8.0625,8.0625,8,7.875,7.9375,8,7.9375,7.875,7.875,7.8125,7.9375,8,8,8.125,8.25,8.25,8.1875,8.0625,8.0625,8.125,7.875,8.125,8.125,8,8,8,8.125,8.3125,8.25,8.25,8.25,8.25,8.375,8.3125,8.375,8.375,8.375,8.375,8.375,8.375,8.3125,8.3125,8.1875,8.1875,8.25,8.125,8.125,8,8.1875,8.0625,8.0625,8,8.0625,8.125,7.875,8.0625,8.0625,8.0625,8,7.9375,8.125,8.1875,8.125,8,7.9375,7.8125,7.875,7.9375,7.9375,8.125,8.1875,8.375,8.75,8.6875,8.6875,8.75,8.5625,8.5625,8.5625,8.6875,8.6875,8.625,8.6875,8.6875,8.6875,8.6875,8.75,8.6875,8.6875,8.6875,8.625,8.8125,8.875,8.8125,8.6875,8.75,8.75,8.75,8.75,8.75,8.8125,8.6875,8.6875,8.75,8.75,8.6875,8.6875,8.625,8.625,8.625,8.625,8.625,8.5625,8.5625,8.5625,8.5625,8.5,8.5625,8.5,8.5625,8.625,8.5625,9.0625,9.5,9.3125,9.3125
9.8125,10.0625,10.25,10.3125,10.25,10.25,10.25,10.3125,10.4375,10.4375,10.25,10.3125,10.1875,10,10.1875,10.375,10.125,9.625,9.5625,9.6875,9.5625,9.5625,9.5,9.5,9.625,9.625,9.75,9.8125,9.8125,9.75,9.6875,9.6875,9.75,9.6875,9.6875,9.6875,9.6875,9.6875,9.6875,9.6875,9.6875,9.625,9.5625,9.5,9.5,9.5625,9.6875,9.6875,9.8125,9.8125,9.6875,9.6875,9.75,9.6875,9.6875,9.75,9.75,9.9375,10.1875,0,0,10.25,0,0,0,0,0,10,10,10,10,10.0625,9.75,9.6875,9.6875,9.6875,9.6875,9.875,9.9375,9.9375,10.0625,9.9375,9.9375,9.875,9.9375,9.75,9.8125,9.875,9.9375,9.9375,9.8125,9.8125,9.75,9.6875,9.6875,9.625,9.6875,9.6875,9.6875,9.5625,9.5625,9.3125,9.25,9.1875,9.0625,9.0625,8.8125,8.875,8.9375,8.8125,8.625,8.5,8.5625,8.4375,8.4375,8.4375,8.5,8.5,8.4375,8.3125,8.375,8.25,8.3125,8.4375,8.375,8.4375,8.4375,8.5,8.5625,8.5625,8.5625,8.5625,8.5625,8.5625,8.625,8.625,8.6875,8.6875,8.5625,8.6875,8.6875,8.625,8.6875,8.6875,8.6875,8.8125,8.9375,8.9375,9,9.0625,9.125,9.25,9.375,9.3125,9.3125,9.375,9.375,9.5,9.5,9.5625,9.5,9.3125,9.125,9.125,9,8.9375,8.875,8.6875,8.75,8.8125,8.75,8.8125,8.8125,8.875,9,9.1875,9.3125,9.5,9.5,9.625,9.75,9.6875,9.75,9.75,9.625,9.6875,9.625,9.5,9.4375,9.25,9.0625,8.9375,9,9,9.1875,9.125,9.25,9.3125,9.375,9.5,9.5625,9.5625,9.5625,9.625,9.6875,9.75,9.8125,9.875,9.875,9.875,9.875,9.9375,9.875,9.875,9.625,9.5,9.5,9.375,9.1875,8.8125,8.75,8.6875,8.625,8.625,8.5,8.5,8.5,8.5,8.625,8.625,8.625,8.5625,8.5625,8.5625,8.5625,8.375,8.375,8.4375,8.4375,8.375,8.375,8.375,8.3125,8.1875,8,7.875,7.875,7.8125,7.75,7.8125,7.8125,7.8125,7.6875,7.75,7.875,7.8125,7.8125,7.75,7.75,7.8125,7.875,7.9375,8,7.9375,8,8,7.8125,8,8.0625,7.9375,8.1875,8.25,8.3125,8.375,8.4375,8.4375,8.4375,8.5,8.5625,8.625,8.6875,8.6875,8.75,8.75,8.75,8.75,8.6875,8.75,8.8125,8.8125,8.875,8.9375,9,9.25,9.3125,9.25,9,9.125,9.125,8.875,8.8125,8.8125,8.75,8.625,8.6875,8.625,8.5,8.5,8.5,8.5,8.5,8.5,8.5,8.5,8.5,8.5625,8.5625,8.5,8.625,8.5625,8.5625,8.5625,8.5,8.4375,8.4375,8.5625,8.6875,8.6875,8.625,8.625,8.5,8.5,8.5,8.375,8.3125,8.375,8.5,8.5625,8.5,8,7.9375,8.0625,8.3125,8.5,8.5,0,0,0,0,0,0,0,0,0,0,0,0,0,0,0,0,8.375,0,0,0,0,0,0,0,8.5,8.5625,0,0,0,0,0,0,0,0,0,0,0,0,0,0,0,0,0,8.5625,8.625,8.625,8.6875,8.75,8.875,8.75,8.875,8.6875,8.4375,8.3125,8.25,8.125,8.0625,8.125,8.125,8.0625,8.0625,8.125,8,8,7.9375,7.875,8,8.0625,8.0625,8.125,8.3125,8.3125,8.25,8.125,8.0625,8.125,7.9375,8.1875,8.1875,8.0625,8.125,8.1875,8.25,8.375,8.375,8.3125,8.3125,8.3125,8.375,8.375,8.375,8.4375,8.4375,8.4375,8.375,8.4375,8.375,8.3125,8.1875,8.25,8.25,8.1875,8.1875,8.125,8.1875,8.125,8.125,8.0625,8.0625,8.125,7.9375,8.125,8.125,8.125,8.0625,8,8.125,8.1875,8.0625,8.0625,7.9375,7.875,7.9375,8,7.9375,8.0625,8.125,8.3125,8.6875,8.6875,8.6875,8.75,8.5625,8.5625,8.5625,8.6875,8.6875,8.6875,8.6875,8.6875,8.6875,8.6875,8.75,8.6875,8.6875,8.6875,8.625,8.8125,8.8125,8.8125,8.625,8.75,8.6875,8.6875,8.6875,8.75,8.75,8.625,8.625,8.75,8.6875,8.625,8.625,8.5625,8.5625,8.625,8.5625,8.625,8.5625,8.5625,8.5625,8.5,8.5,8.5,8.5,8.5625,8.5625,8.625,9.1875,9.5,9.375,9.375
9.8125,10.0625,10.25,10.3125,10.3125,10.25,10.25,10.3125,10.4375,10.4375,10.3125,10.375,10.25,10,10.1875,10.375,10.0625,9.5625,9.5625,9.625,9.5625,9.5,9.5,9.5,9.625,9.625,9.75,9.8125,9.8125,9.75,9.6875,9.75,9.75,9.75,9.625,9.625,9.6875,9.625,9.6875,9.625,9.6875,9.625,9.5625,9.4375,9.4375,9.5625,9.625,9.625,9.75,9.75,9.6875,9.625,9.625,9.625,9.625,9.625,9.625,9.8125,10,0,0,0,0,0,0,0,0,9.9375,10,10,9.9375,10,9.75,9.6875,9.6875,9.6875,9.625,9.75,9.875,9.8125,9.9375,9.875,9.8125,9.75,9.8125,9.6875,9.8125,9.8125,9.875,9.875,9.8125,9.75,9.6875,9.625,9.625,9.5625,9.625,9.625,9.625,9.5,9.5,9.1875,9.125,9.0625,9,8.9375,8.8125,8.875,8.875,8.8125,8.6875,8.5625,8.5625,8.5,8.5,8.5,8.5625,8.5625,8.5,8.4375,8.4375,8.375,8.375,8.5,8.4375,8.4375,8.5,8.5625,8.5625,8.5625,8.625,8.5625,8.5625,8.625,8.6875,8.6875,8.6875,8.6875,8.625,8.6875,8.6875,8.625,8.6875,8.6875,8.6875,8.75,8.9375,9,9.0625,9.125,9.1875,9.3125,9.375,9.375,9.375,9.375,9.4375,9.5625,9.5625,9.625,9.5625,9.375,9.1875,9.0625,8.9375,8.9375,8.875,8.6875,8.75,8.8125,8.8125,8.875,8.9375,9.0625,9.1875,9.3125,9.4375,9.5625,9.625,9.6875,9.8125,9.75,9.8125,9.875,9.6875,9.6875,9.625,9.5625,9.4375,9.25,9.125,8.9375,9,9,9.1875,9.0625,9.1875,9.25,9.3125,9.5,9.5,9.5,9.5625,9.625,9.6875,9.6875,9.75,9.8125,9.875,9.875,9.8125,9.9375,9.875,9.875,9.625,9.4375,9.5,9.375,9.0625,8.6875,8.625,8.625,8.5625,8.5,8.4375,8.4375,8.4375,8.4375,8.5625,8.5625,8.5625,8.5,8.4375,8.5,8.375,8.25,8.3125,8.375,8.375,8.3125,8.3125,8.375,8.25,8.125,7.9375,7.875,7.875,7.875,7.8125,7.875,7.875,7.8125,7.6875,7.75,7.875,7.875,7.8125,7.8125,7.8125,7.875,7.9375,8,8,7.9375,7.9375,8,7.875,8,8,7.8125,8,8.1875,8.1875,8.25,8.3125,8.375,8.4375,8.5,8.5,8.625,8.625,8.6875,8.6875,8.75,8.75,8.6875,8.6875,8.75,8.875,8.875,8.875,8.9375,9,9.25,9.25,9.1875,9.0625,9.1875,9.125,8.875,8.875,8.875,8.8125,8.6875,8.75,8.6875,8.625,8.5625,8.5,8.5625,8.5,8.5,8.4375,8.4375,8.5,8.5625,8.5625,8.5625,8.625,8.5,8.5625,8.5,8.4375,8.4375,8.4375,8.625,8.6875,8.6875,8.625,8.625,8.5625,8.5,8.5,8.4375,8.4375,8.4375,8.5625,8.625,8.5625,8.3125,8.1875,8.25,8.375,8.5625,8.5,8.25,8.0625,0,0,0,0,0,0,0,0,0,0,0,0,0,0,8.3125,0,0,0,0,0,0,8.5625,8.5,8.5,8.5,0,0,0,0,0,0,0,0,0,0,0,8.625,0,0,0,8.625,8.625,8.6875,8.6875,8.75,8.9375,9,8.9375,9.125,9.125,8.5625,8.4375,8.375,8.3125,8.3125,8.3125,8.3125,8.3125,8.3125,8.3125,8.1875,8.1875,8.125,8,8.125,8.1875,8.125,8.25,8.375,8.375,8.3125,8.25,8.125,8.1875,8,8.25,8.25,8.1875,8.25,8.375,8.375,8.4375,8.5,8.4375,8.4375,8.375,8.4375,8.375,8.4375,8.4375,8.4375,8.4375,8.375,8.4375,8.375,8.3125,8.1875,8.25,8.25,8.125,8.125,8.125,8.25,8.1875,8.125,8.0625,8.0625,8.125,7.9375,8.0625,8.0625,8.0625,8,7.9375,8.0625,8.125,7.9375,8,7.9375,7.875,8,8,7.9375,8,8,8.25,8.625,8.625,8.625,8.6875,8.5625,8.5625,8.5625,8.6875,8.625,8.6875,8.6875,8.6875,8.6875,8.6875,8.75,8.6875,8.6875,8.6875,8.625,8.8125,8.8125,8.75,8.625,8.6875,8.625,8.6875,8.6875,8.6875,8.6875,8.625,8.625,8.6875,8.625,8.625,8.625,8.5625,8.5625,8.625,8.5625,8.625,8.5625,8.5625,8.5625,8.5,8.5,8.5,8.5,8.5625,8.625,8.6875,9.25,9.5625,9.4375,9.4375
9.875,10.0625,10.25,10.375,10.3125,10.25,10.25,10.3125,10.4375,10.4375,10.3125,10.375,10.25,10,10.125,10.375,10,9.5625,9.5,9.625,9.5625,9.5,9.5,9.5,9.625,9.625,9.75,9.8125,9.8125,9.75,9.75,9.75,9.75,9.75,9.6875,9.6875,9.6875,9.625,9.6875,9.625,9.625,9.5625,9.5,9.4375,9.375,9.5,9.5625,9.5625,9.6875,9.6875,9.5625,9.5,9.5625,9.5,9.5,9.5,9.5,9.625,9.8125,9.9375,0,9.875,0,0,0,0,0,9.875,9.9375,10,9.9375,10,9.8125,9.75,9.6875,9.6875,9.625,9.75,9.75,9.75,9.875,9.8125,9.75,9.6875,9.75,9.625,9.75,9.75,9.75,9.8125,9.75,9.6875,9.625,9.5625,9.5625,9.5,9.5625,9.5,9.5625,9.4375,9.4375,9.1875,9.125,9.0625,9,8.875,8.75,8.8125,8.9375,8.8125,8.75,8.6875,8.6875,8.5625,8.625,8.625,8.6875,8.6875,8.625,8.5625,8.5625,8.5,8.5,8.5625,8.5,8.5,8.5625,8.5625,8.625,8.625,8.625,8.625,8.5625,8.625,8.625,8.6875,8.6875,8.6875,8.625,8.6875,8.75,8.6875,8.6875,8.6875,8.6875,8.75,8.9375,9.0625,9.1875,9.25,9.3125,9.375,9.4375,9.375,9.4375,9.4375,9.5,9.625,9.625,9.6875,9.625,9.4375,9.25,9,8.9375,8.9375,8.875,8.75,8.875,9,8.9375,9,9.125,9.25,9.3125,9.4375,9.5625,9.625,9.6875,9.75,9.8125,9.8125,9.875,9.9375,9.75,9.75,9.6875,9.5625,9.5,9.375,9.1875,8.9375,9,9.0625,9.1875,9.0625,9.1875,9.25,9.25,9.4375,9.5,9.5,9.5625,9.625,9.6875,9.6875,9.75,9.8125,9.875,9.875,9.875,9.9375,9.875,9.9375,9.625,9.375,9.4375,9.3125,9,8.5625,8.5625,8.5625,8.5,8.4375,8.375,8.375,8.375,8.375,8.5,8.5625,8.5,8.4375,8.375,8.4375,8.3125,8.1875,8.3125,8.375,8.375,8.3125,8.3125,8.3125,8.25,8.0625,7.9375,7.875,7.9375,7.875,7.8125,7.9375,7.875,7.8125,7.6875,7.75,7.875,7.875,7.8125,7.8125,7.8125,7.875,7.9375,7.9375,8,7.875,7.875,7.875,7.8125,7.9375,7.875,7.75,7.8125,8,8.125,8.1875,8.3125,8.3125,8.375,8.4375,8.5,8.625,8.625,8.6875,8.6875,8.75,8.75,8.75,8.6875,8.8125,8.875,8.875,8.875,8.9375,9,9.25,9.25,9.1875,9,9.1875,9.125,8.875,8.875,8.8125,8.75,8.625,8.6875,8.625,8.5625,8.5625,8.5,8.5,8.5,8.4375,8.375,8.4375,8.4375,8.5,8.5625,8.5,8.5625,8.5,8.5,8.4375,8.4375,8.375,8.4375,8.5625,8.6875,8.6875,8.6875,8.625,8.5625,8.5625,8.5625,8.5,8.5,8.5625,8.6875,8.75,8.75,8.5625,8.4375,8.5,8.5625,8.5625,8.5625,8.375,8.1875,0,0,0,0,7.6875,7.75,0,0,7.6875,7.6875,7.6875,0,0,8.125,8.25,8.3125,8.4375,0,0,8.5,8.5,8.5,8.4375,8.4375,8.4375,8.375,0,0,8.25,0,0,8.125,8.3125,0,8.375,8.4375,8.5625,8.625,8.5625,8.5625,8.625,8.625,8.6875,8.6875,8.875,9.0625,9.125,9.0625,9.25,9.3125,8.8125,8.5,8.5,8.4375,8.4375,8.4375,8.5,8.4375,8.4375,8.4375,8.375,8.3125,8.25,8.125,8.1875,8.25,8.25,8.3125,8.4375,8.4375,8.375,8.3125,8.1875,8.1875,8.0625,8.25,8.25,8.25,8.3125,8.4375,8.4375,8.5,8.5,8.5,8.5,8.375,8.4375,8.375,8.375,8.4375,8.4375,8.4375,8.375,8.4375,8.3125,8.3125,8.1875,8.25,8.3125,8.1875,8.1875,8.1875,8.3125,8.3125,8.25,8.1875,8.1875,8.1875,8.0625,8.1875,8.1875,8.1875,8.125,8,8.125,8.1875,8,8,7.9375,7.875,8,8.0625,7.9375,8,8,8.25,8.5625,8.625,8.625,8.6875,8.5625,8.5625,8.625,8.6875,8.625,8.6875,8.6875,8.75,8.6875,8.6875,8.8125,8.75,8.6875,8.6875,8.625,8.75,8.75,8.6875,8.625,8.6875,8.5625,8.625,8.625,8.6875,8.6875,8.625,8.625,8.6875,8.6875,8.625,8.625,8.5625,8.5625,8.625,8.625,8.625,8.5625,8.5625,8.5625,8.5625,8.5,8.5,8.5,8.5625,8.6875,8.75,9.25,9.5625,9.4375,9.4375
9.9375,10.125,10.3125,10.375,10.375,10.3125,10.25,10.375,10.4375,10.5,10.4375,10.5,10.3125,10.0625,10.125,10.3125,10,9.5625,9.5625,9.625,9.5625,9.5,9.5,9.5,9.625,9.625,9.75,9.8125,9.8125,9.75,9.75,9.75,9.75,9.75,9.6875,9.6875,9.6875,9.6875,9.6875,9.625,9.625,9.5625,9.5,9.4375,9.4375,9.5,9.5625,9.5625,9.6875,9.625,9.5625,9.5,9.5,9.5,9.5,9.5,9.4375,9.5625,9.6875,9.75,9.6875,9.6875,0,0,0,0,0,9.875,9.9375,9.9375,9.9375,10.0625,9.875,9.8125,9.75,9.75,9.625,9.75,9.8125,9.8125,9.9375,9.8125,9.75,9.6875,9.75,9.625,9.6875,9.6875,9.75,9.75,9.6875,9.625,9.5625,9.5,9.5,9.4375,9.5,9.4375,9.4375,9.375,9.375,9.1875,9.125,9.125,9.0625,8.875,8.8125,8.8125,8.9375,8.875,8.8125,8.75,8.6875,8.625,8.6875,8.625,8.6875,8.75,8.6875,8.6875,8.6875,8.625,8.625,8.625,8.5625,8.5625,8.625,8.625,8.6875,8.625,8.6875,8.625,8.625,8.625,8.625,8.6875,8.6875,8.6875,8.625,8.75,8.75,8.75,8.6875,8.6875,8.6875,8.8125,9,9.0625,9.25,9.25,9.3125,9.375,9.4375,9.4375,9.4375,9.4375,9.5625,9.6875,9.6875,9.6875,9.6875,9.4375,9.1875,8.8125,8.9375,9,8.9375,8.875,9,9.1875,9.1875,9.25,9.375,9.4375,9.4375,9.5625,9.625,9.75,9.75,9.8125,9.875,9.875,9.9375,10,9.75,9.75,9.6875,9.5625,9.5,9.375,9.125,8.9375,9.0625,9,9.125,9,9.125,9.1875,9.1875,9.4375,9.5,9.5,9.5625,9.625,9.6875,9.6875,9.75,9.8125,9.875,9.875,9.875,9.9375,9.9375,10,9.6875,9.375,9.375,9.25,8.8125,8.5,8.5,8.4375,8.4375,8.4375,8.375,8.375,8.375,8.3125,8.4375,8.5625,8.5,8.5,8.375,8.4375,8.375,8.25,8.3125,8.375,8.375,8.375,8.3125,8.375,8.25,8.125,8,7.875,8,7.875,7.875,7.9375,7.9375,7.8125,7.6875,7.75,7.875,7.875,7.8125,7.8125,7.8125,7.875,7.9375,7.875,7.9375,7.875,7.8125,7.875,7.8125,7.875,7.875,7.75,7.75,7.9375,8,8.0625,8.25,8.25,8.3125,8.375,8.4375,8.5625,8.625,8.6875,8.6875,8.6875,8.75,8.75,8.6875,8.8125,8.875,8.875,8.875,8.9375,9,9.25,9.25,9.25,9,9.1875,9.0625,8.8125,8.8125,8.75,8.6875,8.625,8.625,8.625,8.5,8.5,8.4375,8.4375,8.4375,8.375,8.3125,8.375,8.4375,8.5,8.5,8.5,8.5625,8.5,8.4375,8.375,8.375,8.3125,8.375,8.5625,8.625,8.625,8.625,8.625,8.5625,8.5625,8.5625,8.5,8.5625,8.625,8.75,8.875,8.9375,8.6875,8.625,8.625,8.625,8.625,8.5625,8.4375,8.25,8.25,0,7.9375,7.9375,7.8125,7.875,7.9375,7.875,7.8125,7.8125,7.8125,7.8125,7.875,8.1875,8.25,8.25,8.375,8.4375,8.4375,8.5,8.5,8.4375,8.4375,8.4375,8.4375,8.375,8.3125,8.1875,8.1875,8.125,8.0625,8.125,8.25,8.3125,8.3125,8.375,8.5625,8.5625,8.5,8.5625,8.625,8.625,8.6875,8.6875,8.875,9,9.125,9.0625,9.25,9.25,8.8125,8.625,8.5,8.5,8.5,8.5,8.5,8.5,8.5625,8.5,8.4375,8.375,8.3125,8.125,8.25,8.25,8.3125,8.375,8.4375,8.4375,8.375,8.3125,8.1875,8.1875,8.0625,8.25,8.25,8.25,8.375,8.4375,8.5,8.5,8.5,8.5,8.5,8.375,8.4375,8.375,8.375,8.375,8.375,8.375,8.3125,8.375,8.25,8.25,8.1875,8.25,8.3125,8.25,8.25,8.3125,8.4375,8.375,8.375,8.3125,8.25,8.3125,8.1875,8.3125,8.3125,8.25,8.1875,8.0625,8.1875,8.1875,8,8,7.9375,7.875,8.0625,8.0625,8,8.0625,8,8.25,8.5625,8.5625,8.5625,8.625,8.5625,8.5625,8.625,8.625,8.625,8.6875,8.6875,8.6875,8.6875,8.6875,8.8125,8.6875,8.6875,8.6875,8.6875,8.75,8.75,8.6875,8.625,8.6875,8.5625,8.625,8.6875,8.6875,8.6875,8.625,8.6875,8.75,8.6875,8.625,8.625,8.625,8.625,8.625,8.625,8.6875,8.625,8.625,8.625,8.5625,8.5625,8.5625,8.5625,8.625,8.8125,8.875,9.25,9.5,9.4375,9.375
10.125,10.25,10.375,10.4375,10.5,10.375,10.3125,10.375,10.5,10.5625,10.5,10.5625,10.375,10.0625,10.125,10.3125,9.9375,9.5625,9.5625,9.625,9.625,9.5625,9.5,9.5,9.625,9.6875,9.8125,9.8125,9.8125,9.75,9.6875,9.75,9.75,9.75,9.6875,9.6875,9.6875,9.6875,9.6875,9.625,9.625,9.5625,9.5625,9.5,9.5,9.5625,9.625,9.625,9.6875,9.6875,9.5625,9.5,9.5,9.4375,9.5,9.5,9.4375,9.5,9.625,9.6875,9.5625,9.5625,9.5625,9.5,9.5625,9.625,9.75,9.8125,9.9375,9.9375,9.875,10.0625,9.9375,9.875,9.875,9.8125,9.75,9.8125,9.875,9.875,10,9.875,9.8125,9.75,9.75,9.6875,9.6875,9.75,9.6875,9.6875,9.6875,9.625,9.5625,9.4375,9.4375,9.375,9.4375,9.375,9.375,9.375,9.3125,9.1875,9.125,9.125,9,8.875,8.75,8.75,8.875,8.75,8.75,8.6875,8.6875,8.625,8.6875,8.625,8.75,8.75,8.75,8.6875,8.6875,8.625,8.625,8.6875,8.625,8.5625,8.625,8.625,8.6875,8.625,8.6875,8.625,8.5625,8.5625,8.625,8.625,8.6875,8.6875,8.625,8.75,8.75,8.6875,8.6875,8.75,8.75,8.8125,9,9.0625,9.25,9.3125,9.375,9.375,9.4375,9.4375,9.4375,9.5,9.5625,9.6875,9.6875,9.75,9.75,9.375,9.125,8.75,8.9375,9.125,9.125,9,9.125,9.25,9.25,9.3125,9.4375,9.4375,9.5,9.5625,9.6875,9.75,9.75,9.75,9.75,9.8125,9.875,9.875,9.6875,9.6875,9.625,9.5,9.4375,9.3125,9.125,8.875,9,9.0625,9.125,9,9.0625,9.125,9.125,9.375,9.4375,9.5,9.5625,9.625,9.6875,9.6875,9.75,9.8125,9.875,9.8125,9.8125,9.9375,9.875,10,9.75,9.3125,9.1875,9,8.75,8.5,8.5625,8.5,8.5,8.5,8.4375,8.4375,8.4375,8.375,8.5,8.5625,8.5625,8.5,8.4375,8.4375,8.375,8.25,8.375,8.375,8.375,8.3125,8.3125,8.3125,8.25,8.125,7.9375,7.875,8,7.875,7.875,8,8,7.8125,7.75,7.75,7.875,7.875,7.8125,7.8125,7.8125,7.875,7.9375,7.875,8,7.875,7.8125,7.8125,7.8125,7.875,7.875,7.75,7.8125,7.9375,8,8.125,8.25,8.3125,8.3125,8.375,8.4375,8.5625,8.625,8.625,8.625,8.6875,8.6875,8.6875,8.6875,8.8125,8.875,8.875,8.875,8.9375,9.0625,9.25,9.25,9.25,9.0625,9.25,9.125,8.8125,8.8125,8.8125,8.6875,8.5625,8.625,8.5625,8.5,8.4375,8.375,8.375,8.3125,8.3125,8.1875,8.3125,8.375,8.4375,8.4375,8.4375,8.5,8.375,8.3125,8.3125,8.3125,8.25,8.25,8.5,8.5625,8.5625,8.5625,8.5625,8.5,8.5,8.5625,8.5,8.5625,8.625,8.75,8.875,8.9375,8.75,8.6875,8.6875,8.6875,8.6875,8.5625,8.5,8.4375,8.4375,8.25,8.1875,8.1875,8,8.0625,8.125,8.125,8.0625,7.9375,8,8,8.125,8.3125,8.25,8.3125,8.4375,8.4375,8.4375,8.5,8.5,8.5,8.4375,8.4375,8.4375,8.4375,8.375,8.3125,8.1875,8.1875,8.1875,8.1875,8.3125,8.3125,8.375,8.375,8.5625,8.5625,8.5625,8.5625,8.625,8.625,8.6875,8.6875,8.875,8.9375,9,9,9.1875,9.25,8.875,8.6875,8.5625,8.5625,8.5625,8.5625,8.625,8.5625,8.625,8.5625,8.5,8.375,8.3125,8.1875,8.25,8.3125,8.3125,8.375,8.4375,8.4375,8.4375,8.3125,8.25,8.1875,8.1875,8.25,8.3125,8.3125,8.375,8.5,8.5,8.5,8.4375,8.4375,8.4375,8.3125,8.375,8.3125,8.3125,8.375,8.375,8.375,8.375,8.4375,8.25,8.25,8.25,8.3125,8.4375,8.375,8.375,8.4375,8.5,8.5,8.5,8.375,8.375,8.375,8.3125,8.4375,8.4375,8.375,8.3125,8.1875,8.25,8.3125,8.125,8,7.9375,7.8125,8,8.0625,7.9375,7.9375,7.9375,8.1875,8.5,8.5,8.5,8.5625,8.5625,8.5625,8.5625,8.625,8.5625,8.625,8.625,8.6875,8.625,8.6875,8.75,8.6875,8.6875,8.6875,8.625,8.6875,8.6875,8.625,8.5625,8.625,8.5625,8.625,8.625,8.6875,8.6875,8.625,8.625,8.6875,8.625,8.625,8.625,8.625,8.625,8.6875,8.6875,8.75,8.6875,8.6875,8.6875,8.625,8.625,8.625,8.5625,8.6875,8.9375,9,9.25,9.4375,9.4375,9.375
10.1875,10.25,10.375,10.5,10.5625,10.375,10.375,10.375,10.5625,10.625,10.4375,0,10.25,9.875,9.9375,10.125,9.8125,9.5625,9.5625,9.625,9.625,9.5625,9.5,9.5,9.6875,9.6875,9.8125,9.875,9.8125,9.75,9.75,9.75,9.75,9.75,9.6875,9.6875,9.6875,9.6875,9.6875,9.625,9.625,9.5625,9.5625,9.5,9.5,9.5625,9.625,9.625,9.6875,9.625,9.5,9.4375,9.4375,9.4375,9.4375,9.4375,9.4375,9.4375,9.5,9.5625,9.5,9.5,9.5,9.4375,9.5,9.625,9.75,9.8125,9.875,9.875,9.875,10,9.9375,9.9375,9.9375,9.875,9.8125,9.875,9.9375,9.9375,10,9.9375,9.875,9.875,9.8125,9.6875,9.75,9.75,9.6875,9.6875,9.6875,9.625,9.5625,9.5,9.4375,9.4375,9.4375,9.375,9.375,9.375,9.375,9.1875,9.125,9.125,9.0625,8.875,8.75,8.8125,8.875,8.75,8.75,8.6875,8.6875,8.6875,8.75,8.6875,8.8125,8.8125,8.8125,8.8125,8.75,8.6875,8.6875,8.6875,8.625,8.625,8.625,8.625,8.6875,8.625,8.625,8.5625,8.5,8.5,8.5625,8.625,8.6875,8.6875,8.625,8.8125,8.8125,8.75,8.75,8.75,8.8125,8.9375,9.125,9.1875,9.3125,9.3125,9.4375,9.4375,9.4375,9.4375,9.4375,9.5,9.625,9.75,9.875,10,10.25,0,0,8.6875,9,0,9.25,9.25,9.25,9.3125,9.3125,9.375,9.5,9.5,9.5625,9.5625,9.6875,9.75,9.6875,9.6875,9.6875,9.6875,9.6875,9.6875,9.625,9.625,9.5625,9.4375,9.4375,9.3125,9.125,8.9375,9,9.0625,9.125,9,9.125,9.125,9.125,9.375,9.4375,9.5,9.5625,9.625,9.625,9.6875,9.75,9.8125,9.8125,9.8125,9.75,9.8125,9.875,10,9.75,9.1875,9,8.9375,8.75,8.5625,8.625,8.5625,8.5,8.5625,8.5,8.5,8.5,8.4375,8.5625,8.5625,8.5625,8.5,8.375,8.375,8.25,8.1875,8.3125,8.3125,8.3125,8.25,8.25,8.25,8.1875,8.0625,7.875,7.8125,8,7.875,7.875,7.9375,8,7.8125,7.6875,7.75,7.8125,7.875,7.8125,7.8125,7.8125,7.875,7.9375,7.875,7.9375,7.875,7.8125,7.8125,7.8125,7.875,7.8125,7.8125,7.8125,7.9375,8,8.125,8.25,8.25,8.3125,8.3125,8.4375,8.5625,8.5625,8.625,8.625,8.6875,8.6875,8.6875,8.6875,8.75,8.8125,8.8125,8.8125,8.9375,9.0625,9.1875,9.25,9.3125,9.1875,9.3125,9.25,8.9375,8.9375,8.875,8.6875,8.625,8.5625,8.5,8.4375,8.3125,8.25,8.25,8.125,8.125,7.9375,8.0625,8.1875,8.25,8.25,8.3125,8.4375,8.3125,8.25,8.1875,8.1875,8.1875,8.1875,8.4375,8.5,8.5625,8.5625,8.5625,8.5,8.5,8.5,8.4375,8.5625,8.5625,8.6875,8.8125,8.875,8.6875,8.625,8.625,8.6875,8.6875,8.625,8.5625,8.5,8.5625,8.4375,8.3125,8.3125,8.1875,8.1875,8.25,8.25,8.1875,8.125,8.125,8.1875,8.25,8.3125,8.3125,8.3125,8.4375,8.5,8.5,8.5625,8.5625,8.5,8.5,8.5,8.5,8.5,8.4375,8.375,8.3125,8.3125,8.3125,8.3125,8.375,8.375,8.4375,8.4375,8.5625,8.625,8.5625,8.625,8.6875,8.6875,8.6875,8.75,8.875,8.9375,9.0625,9,9.1875,9.25,8.9375,8.8125,8.6875,8.625,8.625,8.6875,8.6875,8.6875,8.75,8.625,8.5,8.375,8.3125,8.1875,8.25,8.3125,8.3125,8.375,8.375,8.4375,8.375,8.3125,8.25,8.25,8.25,8.25,8.375,8.375,8.375,8.5,8.5,8.4375,8.375,8.4375,8.375,8.3125,8.375,8.375,8.3125,8.375,8.375,8.375,8.4375,8.4375,8.3125,8.3125,8.3125,8.375,8.4375,8.4375,8.4375,8.4375,8.5625,8.5625,8.5625,8.4375,8.4375,8.4375,8.375,8.5,8.4375,8.4375,8.375,8.3125,8.375,8.3125,8.1875,8.0625,7.9375,7.8125,7.9375,8,7.875,7.875,7.875,8.125,8.4375,8.4375,8.4375,8.5625,8.5,8.5625,8.5625,8.5625,8.5625,8.625,8.625,8.6875,8.625,8.625,8.75,8.6875,8.6875,8.6875,8.625,8.6875,8.625,8.5625,8.5625,8.625,8.5625,8.5625,8.5625,8.625,8.625,8.5625,8.625,8.625,8.625,8.625,8.625,8.625,8.6875,8.6875,8.6875,8.75,8.75,8.6875,8.75,8.6875,8.6875,8.6875,8.6875,8.8125,9.0625,9.0625,9.25,9.4375,9.375,9.3125
10.3125,10.375,10.4375,10.5625,10.5625,10.4375,10.375,10.4375,10.5625,10.625,10.4375,0,0,9.75,9.75,9.875,9.6875,9.5625,9.5625,9.625,9.625,9.5625,9.5,9.5,9.6875,9.6875,9.8125,9.8125,9.8125,9.75,9.6875,9.75,9.6875,9.75,9.6875,9.6875,9.75,9.6875,9.6875,9.625,9.625,9.5625,9.5625,9.5,9.5,9.625,9.625,9.625,9.625,9.625,9.5,9.4375,9.375,9.4375,9.4375,9.375,9.375,9.4375,9.4375,9.5,9.375,9.375,9.375,9.375,9.4375,9.5625,9.6875,9.75,9.75,9.75,9.8125,9.875,9.8125,9.8125,9.8125,9.75,9.75,9.8125,9.8125,9.875,9.875,9.8125,9.8125,9.8125,9.75,9.6875,9.75,9.75,9.6875,9.6875,9.6875,9.625,9.5625,9.5,9.4375,9.4375,9.4375,9.375,9.4375,9.375,9.375,9.25,9.1875,9.1875,9.125,8.875,8.8125,8.8125,8.875,8.8125,8.8125,8.8125,8.75,8.6875,8.8125,8.75,8.875,8.875,8.875,8.875,8.8125,8.75,8.6875,8.75,8.6875,8.625,8.625,8.6875,8.6875,8.625,8.625,8.5,8.5,8.5625,8.5625,8.625,8.6875,8.75,8.6875,8.875,8.9375,8.875,8.9375,8.9375,9.0625,9.1875,9.3125,9.3125,9.4375,9.4375,9.4375,9.4375,9.375,9.375,9.4375,9.5,9.625,0,0,0,0,0,0,8.5625,8.875,0,0,9.3125,9.3125,9.375,9.375,9.4375,9.5625,9.5625,9.5625,9.5625,9.6875,9.75,9.6875,9.6875,9.625,9.625,9.625,9.625,9.5625,9.5,9.4375,9.375,9.375,9.25,9.125,8.9375,9,9.0625,9.125,9,9.1875,9.125,9.1875,9.375,9.4375,9.5625,9.5625,9.625,9.625,9.6875,9.75,9.8125,9.8125,9.8125,9.75,9.8125,9.8125,10,9.6875,9.125,9,9,8.9375,8.6875,8.6875,8.625,8.625,8.6875,0,0,8.625,8.5,8.5625,8.5625,8.625,0,8.3125,8.1875,8.0625,8.0625,8.25,8.25,8.1875,8.125,8.125,8.1875,8.125,7.9375,7.875,7.8125,7.9375,7.8125,7.8125,8,8,7.8125,7.6875,7.75,7.75,7.875,7.75,7.75,7.75,7.8125,7.8125,7.8125,7.875,7.75,7.6875,7.6875,7.75,7.8125,7.8125,7.8125,7.8125,7.9375,8,8.125,8.25,8.25,8.3125,8.3125,8.375,8.5,8.5,8.5,8.5625,8.625,8.625,8.625,8.625,8.75,8.8125,8.8125,8.8125,8.9375,9.0625,9.25,9.25,9.3125,9.3125,9.375,9.3125,9.0625,9.0625,9.0625,8.8125,8.625,8.5625,8.4375,8.3125,8.1875,8.125,8.0625,7.9375,8,7.875,7.9375,8,8.0625,8.125,8.25,8.3125,8.25,8.25,8.1875,8.1875,8.1875,8.1875,8.4375,8.5,8.5,8.5625,8.5625,8.4375,8.4375,8.5,8.4375,8.5625,8.5625,8.6875,8.75,8.8125,8.6875,8.5625,8.5625,8.625,8.625,8.625,8.5625,8.5625,8.5625,8.5,8.375,8.375,8.25,8.25,8.3125,8.3125,8.3125,8.25,8.25,8.25,8.3125,8.375,8.375,8.375,8.5,8.5625,8.5625,8.625,8.5625,8.5625,8.5,8.5,8.5,8.5,8.5,8.4375,8.375,0,0,0,0,8.4375,8.5,8.5,8.5625,8.625,8.625,8.6875,8.75,8.75,8.75,8.8125,8.9375,9,9.0625,9.0625,9.1875,9.25,9.0625,8.9375,8.8125,8.75,8.6875,8.75,8.75,8.75,8.8125,8.6875,8.5625,8.4375,8.3125,8.1875,8.1875,8.25,8.3125,8.375,8.375,8.375,8.375,8.3125,8.25,8.25,8.25,8.3125,8.4375,8.375,8.375,8.5,8.4375,8.4375,8.375,8.4375,8.375,8.3125,8.375,8.375,8.3125,8.3125,8.3125,8.3125,8.375,8.4375,8.3125,8.375,8.375,8.4375,8.4375,8.4375,8.4375,8.4375,8.5625,8.5625,8.5,8.4375,8.4375,8.4375,8.375,8.4375,8.4375,8.4375,8.375,8.25,8.3125,8.3125,8.1875,8.0625,7.875,7.8125,7.9375,8,7.875,7.875,7.875,8.0625,8.4375,8.375,8.4375,8.5,8.5,8.5625,8.5625,8.5625,8.5625,8.625,8.625,8.75,8.6875,8.6875,8.8125,8.75,8.75,8.6875,8.6875,8.6875,8.625,8.5625,8.5625,8.625,8.5625,8.5625,8.5625,8.5625,8.5625,8.5,8.5625,8.5625,8.5625,8.5625,8.625,8.625,8.6875,8.75,8.6875,8.8125,8.8125,8.75,8.8125,8.8125,8.8125,8.75,8.8125,8.9375,9.1875,9.1875,9.25,9.375,9.375,9.3125
10.375,10.375,10.5,10.5625,10.625,10.4375,10.4375,10.4375,10.5625,10.6875,10.375,0,0,9.6875,9.6875,9.75,9.6875,9.625,9.625,9.6875,9.625,9.625,9.5625,9.5625,9.75,9.75,9.8125,9.875,9.8125,9.75,9.75,9.75,9.6875,9.75,9.6875,9.6875,9.75,9.6875,9.6875,9.625,9.625,9.5625,9.5625,9.5625,9.5625,9.625,9.625,9.625,9.5625,9.5625,9.5,9.375,9.375,9.375,9.375,9.3125,9.3125,9.3125,9.375,9.375,9.25,9.25,9.25,9.1875,9.25,9.4375,9.5,9.5625,9.625,9.625,9.625,9.6875,9.6875,9.6875,9.6875,9.6875,9.6875,9.75,9.75,9.8125,9.8125,9.75,9.8125,9.875,9.8125,9.75,9.875,9.75,9.6875,9.6875,9.75,9.6875,9.5625,9.5,9.5,9.5,9.5,9.375,9.4375,9.4375,9.4375,9.3125,9.3125,9.3125,9.25,9,8.875,8.9375,9,8.8125,8.875,8.875,8.8125,8.75,8.8125,8.8125,8.875,8.875,8.875,8.875,8.8125,8.8125,8.75,8.75,8.6875,8.625,8.6875,8.6875,8.75,8.625,8.625,8.5625,8.5625,8.625,8.625,8.6875,8.75,8.75,8.75,8.9375,9,8.9375,9.0625,9.0625,9.1875,9.3125,9.375,9.4375,9.5,9.4375,9.4375,9.4375,9.375,9.375,9.375,9.4375,0,0,0,0,0,0,8.5,8.5,8.8125,0,0,0,9.3125,9.4375,9.4375,9.4375,9.5625,9.5625,9.625,9.625,9.75,9.75,9.75,9.625,9.625,9.5625,9.625,9.5625,9.5,9.4375,9.375,9.3125,9.25,9.25,9.125,9,9,9.0625,9.125,9.0625,9.1875,9.1875,9.1875,9.375,9.4375,9.5625,9.5625,9.625,9.625,9.6875,9.75,9.8125,9.8125,9.8125,9.75,9.75,9.8125,10,9.6875,9.0625,8.9375,8.875,8.875,8.75,8.6875,8.625,8.625,8.6875,8.6875,8.6875,8.6875,8.5625,8.625,8.625,8.625,8.5625,8.4375,8.25,8.25,8.1875,8.375,8.3125,8.125,8.0625,8.0625,8.125,8,7.875,7.8125,7.75,7.875,7.8125,7.8125,7.9375,7.9375,7.75,7.6875,7.6875,7.75,7.8125,7.75,7.6875,7.6875,7.75,7.8125,7.75,7.8125,7.75,7.75,7.75,7.8125,7.875,7.9375,7.9375,7.9375,8.0625,8.125,8.125,8.25,8.25,8.3125,8.25,8.375,8.4375,8.375,8.375,8.4375,8.5625,8.5625,8.5625,8.5625,8.6875,8.8125,8.75,8.75,8.9375,9,9.1875,9.25,9.3125,9.375,9.4375,9.375,9.1875,9.1875,9.125,8.8125,8.625,8.5625,8.375,8.25,8.1875,8.0625,7.9375,7.875,7.9375,7.8125,7.875,7.9375,7.9375,8,8.1875,8.25,8.125,8.1875,8.1875,8.1875,8.1875,8.25,8.4375,8.5,8.5,8.5625,8.5,8.4375,8.4375,8.5,8.4375,8.5625,8.5625,8.6875,8.75,8.8125,8.6875,8.5625,8.5,8.5625,8.5625,8.5625,8.5625,8.5,8.5,8.5,8.4375,8.4375,8.375,8.375,8.375,8.375,8.375,8.375,8.375,8.375,8.375,8.4375,8.4375,8.5,8.5625,8.625,8.625,8.625,8.625,8.5625,8.5625,8.5625,8.5625,8.5,8.5,8.5,0,0,0,0,0,8.4375,8.5,8.5,8.625,8.625,8.625,8.6875,8.75,8.8125,8.8125,8.875,9,9,9.0625,9.0625,9.1875,9.25,9.0625,8.9375,8.875,8.75,8.75,8.8125,8.8125,8.75,8.8125,8.6875,8.5625,8.4375,8.3125,8.1875,8.1875,8.1875,8.25,8.3125,8.3125,8.3125,8.3125,8.25,8.25,8.25,8.25,8.3125,8.4375,8.4375,8.4375,8.5,8.4375,8.4375,8.4375,8.5,8.4375,8.3125,8.4375,8.3125,8.25,8.25,8.3125,8.3125,8.375,8.4375,8.375,8.4375,8.375,8.4375,8.4375,8.4375,8.5,8.4375,8.5625,8.5625,8.5625,8.5,8.4375,8.4375,8.375,8.4375,8.4375,8.4375,8.375,8.25,8.3125,8.3125,8.1875,8.125,7.875,7.875,8,8,7.875,7.9375,7.875,7.9375,8.3125,8.3125,8.375,8.4375,8.5,8.5,8.5625,8.5625,8.5625,8.6875,8.6875,8.75,8.75,8.8125,8.8125,8.8125,8.875,8.8125,8.75,8.75,8.6875,8.5625,8.5625,8.625,8.5625,8.5625,8.5625,8.5625,8.5625,8.5,8.5,8.5,8.5625,8.5625,8.5625,8.625,8.6875,8.75,8.75,8.8125,8.875,8.875,8.875,8.875,8.875,8.875,8.9375,9.0625,9.25,9.1875,9.25,9.375,9.375,9.3125
10.4375,10.4375,10.5,0,0,0,0,0,10.5625,0,10.4375,0,0,9.6875,9.625,9.6875,9.625,9.625,9.625,9.75,9.6875,9.6875,9.625,9.625,9.8125,9.8125,9.875,9.875,9.8125,9.8125,9.75,9.8125,9.75,9.75,9.75,9.6875,9.75,9.6875,9.6875,9.625,9.625,9.625,9.625,9.625,9.625,9.625,9.625,9.625,9.5625,9.5625,9.4375,9.375,9.3125,9.3125,9.3125,9.25,9.1875,9.1875,9.25,9.25,9.125,9.125,9.125,9.125,9.1875,9.3125,9.4375,9.4375,9.5625,9.5625,9.5625,9.625,9.6875,9.6875,9.625,9.6875,9.625,9.6875,9.75,9.8125,9.8125,9.75,9.8125,9.875,9.8125,9.8125,9.875,9.75,9.6875,9.6875,9.75,9.6875,9.625,9.5625,9.5625,9.5625,9.5625,9.4375,9.5,9.5,9.5625,9.4375,9.4375,9.4375,9.375,9.25,9.125,9.125,9.1875,8.9375,9,9.0625,9,8.8125,8.875,8.875,8.9375,8.9375,8.9375,8.875,8.875,8.8125,8.75,8.8125,8.6875,8.625,8.6875,8.6875,8.75,8.6875,8.6875,8.625,8.625,8.625,8.6875,8.75,8.8125,8.8125,8.875,9.0625,9.0625,9,9.1875,9.25,9.3125,9.375,9.4375,9.4375,9.5,9.4375,9.4375,9.375,9.3125,9.1875,9.125,9.25,0,0,0,0,0,8.4375,8.375,8.4375,8.625,0,0,9.25,9.25,9.4375,9.4375,9.4375,9.625,9.625,9.625,9.6875,9.75,9.8125,9.75,9.6875,9.625,9.5625,9.5625,9.5625,9.4375,9.4375,9.375,9.25,9.25,9.1875,9.125,9.0625,9.0625,9.0625,9.125,9.0625,9.1875,9.1875,9.1875,9.375,9.4375,9.5,9.5625,9.625,9.625,9.625,9.6875,9.75,9.8125,9.8125,9.75,9.75,9.75,9.9375,9.625,9.0625,8.9375,8.875,8.8125,8.6875,8.625,8.5625,8.5,8.5625,8.5625,8.625,8.5625,8.5,8.5625,8.5625,8.5625,8.5,8.4375,8.25,8.3125,8.3125,8.375,8.375,8.25,8.1875,8.125,8.125,8,7.875,7.875,7.8125,7.9375,7.8125,7.8125,7.9375,7.9375,7.75,7.75,7.6875,7.6875,7.75,7.75,7.6875,7.6875,7.75,7.75,7.75,7.8125,7.8125,7.75,7.8125,7.9375,8,8.125,8.125,8.125,8.1875,8.1875,8.1875,8.25,8.25,8.3125,8.25,8.3125,8.3125,8.3125,8.25,8.3125,8.5,8.5,8.5,8.5625,8.625,8.75,8.6875,8.75,8.875,8.9375,9.125,9.1875,9.1875,9.3125,9.375,9.3125,9.1875,9.1875,9.1875,8.8125,8.625,8.5625,8.375,8.1875,8.125,8,7.875,7.8125,7.9375,7.8125,7.875,7.875,7.9375,7.9375,8.125,8.1875,8.0625,8.1875,8.1875,8.1875,8.25,8.25,8.4375,8.4375,8.4375,8.5,8.4375,8.375,8.375,8.4375,8.4375,8.5625,8.5625,8.625,8.6875,8.75,8.6875,8.5625,8.5,8.5,8.5625,8.5625,8.5625,8.5,8.5,8.5,8.4375,8.4375,8.375,8.375,8.375,8.375,8.4375,8.5,8.5,8.4375,8.4375,8.5,8.4375,8.5,8.5625,8.625,8.625,8.625,8.625,8.5625,8.5625,8.5,8.5,8.5,8.5,8.5,0,0,0,0,8.4375,8.4375,8.5,8.5,8.625,8.625,8.625,8.6875,8.8125,8.8125,8.8125,8.875,9,9.0625,9.0625,9.0625,9.125,9.1875,9.0625,8.9375,8.9375,8.875,8.8125,8.8125,8.875,8.75,8.8125,8.75,8.5625,8.4375,8.3125,8.1875,8.1875,8.1875,8.25,8.3125,8.3125,8.3125,8.3125,8.25,8.25,8.25,8.25,8.3125,8.4375,8.4375,8.375,8.4375,8.4375,8.4375,8.375,8.4375,8.375,8.25,8.375,8.25,8.1875,8.1875,8.25,8.25,8.3125,8.4375,8.375,8.4375,8.4375,8.4375,8.5,8.5,8.5,8.5,8.625,8.625,8.5625,8.5,8.4375,8.4375,8.4375,8.4375,8.4375,8.4375,8.375,8.3125,8.3125,8.3125,8.1875,8.1875,7.9375,7.9375,8.125,8.125,8,8,7.9375,7.9375,8.1875,8.1875,8.25,8.3125,8.375,8.4375,8.5,8.5,8.5625,8.6875,8.6875,8.8125,8.8125,8.875,8.875,8.875,8.9375,8.9375,8.8125,8.8125,8.75,8.625,8.5625,8.625,8.5625,8.5625,8.5,8.5625,8.5625,8.5,8.5,8.5,8.5,8.5625,8.5625,8.625,8.6875,8.75,8.75,8.8125,8.875,8.875,8.875,8.875,8.875,8.875,8.9375,9,9.25,9.125,9.1875,9.3125,9.3125,9.25
10.4375,10.4375,0,0,0,0,0,0,0,0,0,0,0,9.6875,9.625,9.6875,9.625,9.625,9.625,9.8125,9.8125,9.75,9.75,9.6875,9.875,9.9375,9.9375,9.9375,9.875,9.8125,9.75,9.8125,9.75,9.75,9.6875,9.6875,9.6875,9.6875,9.6875,9.5625,9.625,9.625,9.625,9.625,9.625,9.6875,9.625,9.625,9.5625,9.5,9.4375,9.375,9.3125,9.25,9.25,9.1875,9.125,9.125,9.1875,9.1875,9.0625,9.0625,9.0625,9.0625,9.125,9.25,9.375,9.375,9.5,9.5,9.5625,9.625,9.625,9.6875,9.625,9.625,9.625,9.6875,9.75,9.75,9.75,9.75,9.8125,9.8125,9.75,9.75,9.875,9.75,9.6875,9.6875,9.75,9.6875,9.625,9.5625,9.5625,9.5625,9.5625,9.5,9.5625,9.5625,9.625,9.5,9.5,9.5,9.5,9.375,9.25,9.3125,9.3125,9.0625,9.125,9.1875,9.1875,8.9375,9,8.9375,8.9375,8.9375,8.9375,8.875,8.875,8.875,8.8125,8.875,8.75,8.6875,8.75,8.75,8.75,8.75,8.75,8.6875,8.75,8.75,8.75,8.8125,8.875,8.9375,8.9375,9.1875,9.1875,9.125,9.25,9.3125,9.3125,9.4375,9.4375,9.4375,9.4375,9.3125,9.3125,9.25,9,8.8125,8.8125,8.875,8.75,8.4375,8.4375,8.4375,8.4375,8.4375,8.375,8.375,8.5625,0,8.8125,9.125,9.25,9.4375,9.4375,9.4375,9.625,9.625,9.6875,9.6875,9.8125,9.875,9.8125,9.6875,9.625,9.625,9.625,9.625,9.5,9.5,9.4375,9.3125,9.3125,9.25,9.1875,9.125,9.125,9.125,9.1875,9.125,9.25,9.25,9.25,9.4375,9.4375,9.5,9.5625,9.625,9.625,9.625,9.6875,9.75,9.8125,9.8125,9.75,9.6875,9.75,9.9375,9.625,9.25,9.1875,9,8.875,8.6875,8.625,8.5625,8.5,8.5,8.5,8.5,8.5,8.375,8.4375,8.4375,8.4375,8.375,8.3125,8.1875,8.3125,8.3125,8.3125,8.3125,8.25,8.1875,8,8,7.9375,7.8125,7.875,7.8125,8,7.875,7.875,7.9375,7.875,7.75,7.75,7.6875,7.6875,7.8125,7.75,7.75,7.75,7.8125,7.8125,7.75,7.8125,7.875,7.8125,7.9375,8.0625,8.1875,8.1875,8.25,8.25,8.25,8.1875,8.1875,8.25,8.25,8.25,8.1875,8.1875,8.25,8.1875,8.125,8.1875,8.4375,8.4375,8.4375,8.5,8.625,8.6875,8.6875,8.6875,8.75,8.8125,9,9.0625,9.125,9.25,9.3125,9.25,9.125,9.1875,9.1875,8.875,8.625,8.625,8.375,8.25,8.1875,8,7.9375,7.9375,8.0625,7.9375,8,8,8,8,8.1875,8.1875,8.0625,8.1875,8.25,8.25,8.3125,8.25,8.375,8.3125,8.3125,8.4375,8.375,8.3125,8.3125,8.4375,8.4375,8.5625,8.5625,8.625,8.6875,8.75,8.6875,8.5625,8.5,8.5,8.5,8.5625,8.5,8.5,8.5,8.5,8.4375,8.375,8.375,8.375,8.375,8.3125,8.4375,8.5,8.5,8.4375,8.4375,8.5,8.4375,8.5,8.5625,8.625,8.625,8.625,8.625,8.625,8.5625,8.5625,8.5,8.5,8.5625,8.5625,0,0,0,8.4375,8.5,8.5,8.5,8.5625,8.625,8.625,8.6875,8.75,8.875,8.875,8.8125,8.9375,9,9.0625,9.125,9.0625,9.125,9.1875,9,8.9375,8.9375,8.875,8.8125,8.8125,8.875,8.8125,8.8125,8.75,8.625,8.5,8.375,8.25,8.25,8.25,8.3125,8.3125,8.3125,8.3125,8.3125,8.25,8.25,8.25,8.25,8.3125,8.375,8.4375,8.375,8.4375,8.4375,8.375,8.375,8.375,8.375,8.25,8.3125,8.25,8.1875,8.1875,8.1875,8.25,8.3125,8.4375,8.375,8.4375,8.4375,8.5,8.5625,8.5625,8.5625,8.5625,8.6875,8.6875,8.625,8.5,8.5,8.5,8.4375,8.5,8.5,8.4375,8.4375,8.375,8.375,8.3125,8.25,8.25,8.0625,8.125,8.25,8.25,8.1875,8.1875,8,7.9375,8.1875,8.125,8.125,8.25,8.3125,8.3125,8.375,8.4375,8.5,8.625,8.6875,8.8125,8.875,8.875,8.875,8.9375,9,9.0625,8.9375,8.9375,8.875,8.6875,8.625,8.625,8.5625,8.5,8.5,8.5,8.5,8.5,8.5,8.5,8.5,8.5,8.5,8.5625,8.625,8.6875,8.6875,8.75,8.8125,8.8125,8.8125,8.8125,8.8125,8.8125,8.875,8.875,9.1875,9,9.0625,9.1875,9.25,9.1875
10.4375,0,0,0,0,0,0,0,0,0,0,0,0,9.6875,9.625,9.6875,9.6875,9.6875,9.6875,9.875,9.9375,9.9375,9.8125,9.75,9.9375,10,10.0625,10,9.875,9.8125,9.75,9.875,9.75,9.75,9.6875,9.6875,9.6875,9.6875,9.625,9.5625,9.5625,9.5625,9.625,9.625,9.625,9.625,9.5625,9.5625,9.5,9.5,9.4375,9.375,9.3125,9.3125,9.3125,9.25,9.1875,9.125,9.1875,9.25,9.125,9.0625,9.0625,9.0625,9.125,9.25,9.3125,9.375,9.4375,9.4375,9.5,9.5,9.625,9.625,9.5625,9.625,9.625,9.6875,9.75,9.75,9.75,9.6875,9.75,9.75,9.75,9.75,9.875,9.75,9.6875,9.6875,9.75,9.6875,9.625,9.5625,9.625,9.625,9.625,9.5625,9.625,9.625,9.625,9.5625,9.625,9.625,9.625,9.5,9.375,9.375,9.375,9.125,9.1875,9.25,9.25,8.9375,8.9375,8.9375,8.9375,8.9375,8.875,8.875,8.875,8.875,8.875,8.875,8.875,8.75,8.75,8.75,8.8125,8.75,8.8125,8.8125,8.8125,8.875,8.875,8.9375,9,9.0625,9.125,9.25,9.25,9.1875,9.3125,9.3125,9.3125,9.375,9.375,9.375,9.375,9.1875,9.125,9,8.75,8.625,8.625,8.6875,8.5,8.3125,8.375,8.375,8.375,8.375,8.375,8.4375,8.5625,8.75,8.75,9.0625,9.1875,9.375,9.375,9.4375,9.625,9.6875,9.6875,9.6875,9.8125,9.875,9.8125,9.6875,9.625,9.625,9.625,9.625,9.5,9.5,9.4375,9.3125,9.3125,9.25,9.1875,9.125,9.125,9.1875,9.1875,9.1875,9.3125,9.25,9.25,9.4375,9.4375,9.5625,9.5625,9.625,9.625,9.625,9.6875,9.75,9.75,9.8125,9.75,9.6875,9.75,9.9375,9.6875,9.375,9.3125,9.0625,8.9375,8.6875,8.625,8.5625,8.5,8.5,8.5,8.5,8.5,8.375,8.375,8.375,8.375,8.375,8.3125,8.125,8.3125,8.25,8.1875,8.25,8.125,8.125,8,7.9375,7.875,7.8125,7.875,7.8125,8,7.9375,7.9375,7.9375,7.875,7.8125,7.75,7.75,7.75,7.8125,7.8125,7.8125,7.875,7.9375,7.875,7.8125,7.9375,8,7.9375,8.125,8.25,8.3125,8.375,8.375,8.375,8.375,8.3125,8.3125,8.3125,8.3125,8.3125,8.25,8.1875,8.25,8.1875,8.1875,8.25,8.4375,8.4375,8.4375,8.5,8.5625,8.625,8.625,8.6875,8.6875,8.8125,8.9375,9,9,9.125,9.25,9.1875,9.125,9.125,9.1875,8.9375,8.6875,8.625,8.4375,8.3125,8.25,8.0625,8.0625,8.0625,8.1875,8.1875,8.1875,8.1875,8.1875,8.1875,8.3125,8.3125,8.3125,8.375,8.4375,8.375,8.4375,8.375,8.5,8.4375,8.375,8.4375,8.375,8.3125,8.375,8.4375,8.5,8.5625,8.625,8.6875,8.6875,8.75,8.6875,8.5625,8.4375,8.4375,8.5,8.5,8.5,8.5,8.4375,8.4375,8.4375,8.375,8.375,8.375,8.375,8.375,8.4375,8.5,8.5,8.4375,8.4375,8.5,8.4375,8.5,8.5625,8.625,8.625,8.625,8.625,8.625,8.625,8.5625,8.5625,8.5625,8.625,8.625,0,0,0,8.5,8.5625,8.5625,8.5625,8.625,8.6875,8.6875,8.6875,8.75,8.875,8.875,8.8125,8.875,9,9,9.0625,9.0625,9.0625,9.0625,8.875,8.875,8.875,8.8125,8.75,8.75,8.8125,8.75,8.8125,8.75,8.625,8.5,8.375,8.375,8.3125,8.3125,8.3125,8.3125,8.3125,8.375,8.3125,8.25,8.1875,8.1875,8.25,8.3125,8.375,8.375,8.3125,8.4375,8.375,8.375,8.3125,8.375,8.3125,8.25,8.3125,8.25,8.125,8.125,8.125,8.25,8.3125,8.4375,8.4375,8.4375,8.5,8.5625,8.6875,8.5625,8.625,8.625,8.6875,8.6875,8.625,8.5,8.5,8.5,8.5,8.5,8.5,8.4375,8.4375,8.375,8.375,8.375,8.3125,8.3125,8.1875,8.25,8.3125,8.3125,8.3125,8.25,8.125,8.0625,8.1875,8.125,8.0625,8.1875,8.25,8.25,8.25,8.375,8.4375,8.625,8.6875,8.75,8.875,8.875,8.875,8.9375,9.0625,9.1875,9.0625,9,8.875,8.6875,8.5625,8.5625,8.5,8.5,8.4375,8.4375,8.4375,8.4375,8.5,8.4375,8.4375,8.5,8.5,8.5625,8.625,8.6875,8.6875,8.75,8.8125,8.8125,8.8125,8.8125,8.75,8.75,8.75,8.8125,9.0625,8.9375,8.9375,9.0625,9.25,9.1875
0,0,0,0,0,0,0,0,0,0,0,0,0,9.6875,9.625,9.75,9.875,9.8125,9.75,10.0625,10.3125,10.25,10.1875,10,10.1875,10.25,10.25,10.1875,10.0625,9.9375,9.875,9.9375,9.75,9.8125,9.6875,9.6875,9.6875,9.6875,9.625,9.5625,9.5625,9.5625,9.625,9.625,9.625,9.625,9.5625,9.5625,9.5,9.5,9.4375,9.375,9.375,9.3125,9.3125,9.25,9.1875,9.125,9.1875,9.1875,9.0625,9,9,9.0625,9.125,9.1875,9.25,9.25,9.375,9.375,9.375,9.4375,9.5,9.5625,9.5,9.625,9.5625,9.625,9.6875,9.6875,9.6875,9.625,9.6875,9.6875,9.625,9.6875,9.8125,9.6875,9.625,9.625,9.6875,9.6875,9.625,9.5625,9.5625,9.5625,9.625,9.5625,9.625,9.625,9.6875,9.625,9.6875,9.6875,9.75,9.625,0,9.4375,9.375,9.125,9.1875,9.25,9.1875,8.875,8.875,8.875,8.875,8.875,8.8125,8.8125,8.8125,8.8125,8.8125,8.875,8.875,8.75,8.75,8.75,8.8125,8.8125,8.875,8.875,8.875,8.9375,8.9375,9,9.125,9.1875,9.1875,9.3125,9.3125,9.1875,9.25,9.3125,9.3125,9.3125,9.3125,9.3125,9.25,8.9375,8.875,8.8125,8.625,8.5625,8.5625,8.5625,8.4375,8.25,8.3125,8.3125,8.375,8.375,8.375,8.4375,8.5625,8.75,8.8125,9.0625,9.1875,9.375,9.375,9.4375,9.625,9.6875,9.6875,9.75,9.8125,9.875,9.875,9.6875,9.625,9.6875,9.6875,9.6875,9.5,9.5,9.4375,9.3125,9.3125,9.25,9.1875,9.125,9.1875,9.1875,9.1875,9.1875,9.3125,9.25,9.25,9.4375,9.4375,9.5,9.5625,9.5625,9.625,9.5625,9.625,9.6875,9.6875,9.6875,9.6875,9.625,9.6875,9.875,9.625,9.4375,9.375,9.125,8.9375,8.6875,8.5625,8.5625,8.5,8.5,8.5,8.5,8.5,8.3125,8.3125,8.3125,8.3125,8.25,8.1875,8,8.25,8.1875,8.125,8.1875,8.0625,8.0625,8,7.9375,7.875,7.8125,7.875,7.875,8.0625,8,7.9375,8,7.875,7.8125,7.75,7.75,7.75,7.875,7.875,7.875,7.875,7.9375,7.9375,7.8125,8,8.0625,8,8.25,8.3125,0,0,8.4375,8.4375,8.4375,8.4375,8.4375,8.4375,8.4375,8.375,8.3125,8.25,8.25,8.25,8.25,8.25,8.4375,8.4375,8.5,8.5,8.5625,8.625,8.625,8.625,8.6875,8.75,8.9375,9.0625,9.0625,9.1875,9.25,9.1875,9.125,9.125,9.1875,9,8.6875,8.6875,8.4375,8.375,8.3125,8.1875,8.1875,8.25,8.3125,8.3125,8.3125,8.3125,8.3125,8.3125,8.4375,8.4375,8.4375,8.5,8.5,8.4375,8.5,8.4375,8.5,8.5,8.4375,8.5,8.5,8.4375,8.4375,8.5,8.5,8.625,8.625,8.6875,8.6875,8.75,8.6875,8.5625,8.5,8.5,8.5,8.5,8.5,8.5,8.5,8.5,8.4375,8.4375,8.4375,8.4375,8.4375,8.375,8.4375,8.5625,8.5,8.4375,8.4375,8.5,8.4375,8.5,8.5625,8.625,8.6875,8.6875,8.625,8.625,8.625,8.625,8.5625,8.5625,8.6875,8.6875,8.625,0,0,8.5625,8.5625,8.5625,8.625,8.625,8.75,8.8125,8.75,8.8125,8.875,8.8125,8.75,8.8125,8.9375,9,9,9,9,8.9375,8.8125,8.8125,8.8125,8.75,8.75,8.75,8.8125,8.75,8.8125,8.75,8.625,8.5625,8.4375,8.4375,8.3125,8.375,8.3125,8.375,8.3125,8.375,8.3125,8.1875,8.1875,8.1875,8.1875,8.25,8.3125,8.3125,8.25,8.3125,8.3125,8.3125,8.25,8.375,8.3125,8.25,8.3125,8.25,8.125,8.1875,8.125,8.3125,8.375,8.4375,8.4375,8.5,8.5,8.5625,8.75,8.625,8.625,8.6875,8.6875,8.6875,8.6875,8.5625,8.5,8.5,8.5,8.5,8.5,8.5,8.4375,8.375,8.375,8.375,8.3125,8.375,8.25,8.3125,8.375,8.375,8.375,8.3125,8.1875,8.125,8.25,8.125,8.125,8.1875,8.25,8.25,8.25,8.3125,8.4375,8.625,8.6875,8.75,8.875,8.875,8.875,8.9375,9.125,9.25,9.125,9.0625,8.875,8.6875,8.5625,8.5,8.5,8.4375,8.4375,8.4375,8.4375,8.4375,8.4375,8.4375,8.4375,8.5,8.5,8.5625,8.625,8.6875,8.6875,8.75,8.8125,8.8125,8.75,8.75,8.75,8.6875,8.6875,8.6875,9,8.875,8.875,8.9375,9.125,9.0625
